-39.26286697 8.36906052 5.59140015 195.000000
-39.62926102 8.59212685 3.22778320 196.000000
-39.24922180 8.59239101 5.49935913 196.000000
-38.69730377 8.55274868 8.55227661 196.000000
-39.04650879 8.77147198 6.28720093 196.000000
-39.13349152 8.90409088 5.80126953 196.000000
-38.73177719 8.90508366 7.96780396 196.000000
-39.06351471 9.12025833 5.80123901 196.000000
-38.91175079 9.19353199 6.49057007 196.000000
-38.58171844 9.20194626 8.46661377 196.000000
-38.71299362 9.35833931 7.48178101 196.000000
-39.38722992 9.66754723 3.34701538 196.000000
-38.90227509 9.63929653 6.00592041 196.000000
-39.12690735 9.82442856 4.63229370 196.000000
-38.74183273 9.82441616 6.70028687 196.000000
-39.44770432 10.14763832 2.36862183 196.000000
-38.56431961 9.99270153 7.39093018 196.000000
-39.20318222 10.30703068 3.55535889 196.000000
-38.69611740 10.25522232 6.41253662 196.000000
-38.59328461 10.33957195 6.80636597 196.000000
-39.41886139 10.71686172 1.68551636 196.000000
-40.90147781 11.30449295 -7.17221069 196.000000
-41.55923843 11.63485146 -11.30828857 196.000000
-41.56508636 11.74667358 -11.50387573 196.000000
-41.88621521 11.97017479 -13.46817017 196.000000
-41.61544037 12.00404549 -12.08963013 196.000000
-41.85246277 12.19107151 -13.66387939 196.000000
-41.67652893 12.25335407 -12.67395020 196.000000
-41.58756256 12.34515476 -12.37863159 196.000000
-42.02724075 12.61165619 -15.23446655 196.000000
-41.10701752 12.41555691 -9.91558838 196.000000
-41.78962326 12.76194191 -14.04629517 196.000000
-41.88164902 12.91388130 -14.83425903 195.000000
-41.72098923 12.96919918 -14.04513550 195.000000
-41.16961288 12.90283489 -10.99267578 196.000000
-41.10863876 12.99972820 -10.69210815 196.000000
-40.99750137 13.06974888 -10.19845581 196.000000
-41.25369263 13.27726078 -11.97109985 196.000000
-40.60415268 13.17215729 -8.32781982 196.000000
-40.25129700 13.16795540 -6.45703125 196.000000
-41.45142746 13.69130039 -13.63891602 196.000000
-40.63767624 13.52545452 -9.01098633 196.000000
-40.61335754 13.63522148 -9.10964966 196.000000
-40.63816833 13.76226234 -9.50369263 196.000000
-40.37427139 13.77249622 -7.92175293 196.000000
-41.12097168 14.15721321 -12.64849854 196.000000
-41.00952148 14.23329544 -12.05267334 196.000000
-40.94663620 14.31764412 -11.85446167 196.000000
-40.98683548 14.45063400 -12.34704590 196.000000
-40.78110886 14.49413109 -11.36260986 196.000000
-40.34141159 14.43978405 -8.89968872 195.000000
-40.36063385 14.56103611 -9.09167480 196.000000
-40.64588547 14.78348255 -11.06124878 196.000000
-40.73441696 14.93389606 -11.84930420 196.000000
-40.29499817 14.87637138 -9.38638306 196.000000
-40.19926071 14.95415878 -8.88916016 196.000000
-40.45079041 15.16526985 -10.66183472 196.000000
-39.97900772 15.09270859 -8.00207520 196.000000
-40.63789368 15.45851231 -12.23645020 196.000000
-40.29707718 15.44244862 -10.26220703 196.000000
-40.51483917 15.64220047 -11.83801270 196.000000
-39.89675522 15.51018620 -8.29211426 196.000000
-40.01217651 15.66670799 -9.07498169 196.000000
-40.06660461 15.80358696 -9.66610718 196.000000
-40.26719666 15.99743557 -11.14343262 196.000000
-40.00757980 16.00062370 -9.76385498 196.000000
-40.04092026 16.12540245 -10.05438232 196.000000
-40.06210327 16.24933815 -10.44863892 196.000000
-39.83499908 16.26356697 -9.26605225 196.000000
-40.47261047 16.63175392 -13.40194702 195.000000
-40.48900223 16.75024605 -13.59405518 196.000000
-39.74720764 16.56950569 -9.36056519 196.000000
-39.55257034 16.59452248 -8.37487793 196.000000
-39.68641281 16.76292992 -9.45840454 196.000000
-40.05860901 17.02384377 -11.81683350 196.000000
-39.41055679 16.86385345 -8.07424927 196.000000
-39.23657990 16.90681839 -7.28698730 196.000000
-40.20619583 17.41320419 -13.28851318 196.000000
-39.35291290 17.17728996 -8.36587524 196.000000
-39.99797440 17.54573250 -12.50033569 196.000000
-39.88789368 17.61480331 -12.10693359 196.000000
-39.90282822 17.73064613 -12.29925537 196.000000
-39.42173767 17.64400482 -9.64132690 196.000000
-40.61283112 18.24541855 -17.12347412 195.000000
-39.82550049 18.02939796 -12.59478760 196.000000
-40.21020508 18.30102539 -15.05169678 196.000000
-40.12742996 18.36874390 -14.75543213 196.000000
-39.19634628 18.08675385 -9.34066772 196.000000
-39.92171860 18.50971794 -14.06735229 196.000000
-39.71054840 18.52780342 -12.88131714 196.000000
-39.54735184 18.55933380 -12.09277344 196.000000
-39.13155746 18.49288559 -9.82879639 196.000000
-39.56612015 18.79396820 -12.78323364 196.000000
-39.51121140 18.86590385 -12.48196411 196.000000
-39.01547623 18.76229668 -9.72576904 196.000000
-39.19280243 18.95221710 -11.10482788 196.000000
-38.90161514 18.93070984 -9.42660522 196.000000
-39.25048828 19.18487358 -11.78884888 196.000000
-39.71473694 19.50302505 -14.94021606 196.000000
-39.01176453 19.30327797 -10.90411377 196.000000
-39.29954910 19.54367828 -12.97250366 196.000000
-38.63732529 19.34137917 -8.92993164 196.000000
-38.65363693 19.45980263 -9.32446289 196.000000
-38.15541840 19.33994675 -6.36645508 196.000000
-39.25164032 19.93469810 -13.35620117 196.000000
-39.13959503 19.99569702 -12.96319580 196.000000
-39.72792435 20.37567329 -16.90231323 196.000000
-38.28713226 19.81081581 -8.03543091 196.000000
-38.77986145 20.14712906 -11.38381958 196.000000
-38.50884628 20.13316917 -10.00622559 196.000000
-38.28179550 20.12683487 -8.82409668 196.000000
-37.90005112 20.05976677 -6.75735474 196.000000
-38.35548401 20.37443924 -9.70697021 196.000000
-38.29090118 20.45424843 -9.60937500 196.000000
-38.17488098 20.49790382 -9.11651611 196.000000
-38.15769958 20.59941292 -9.31433105 196.000000
-35.90435791 19.63927841 4.57208252 196.000000
-35.76199722 19.67762566 5.16195679 196.000000
-35.37833023 19.58951187 7.32846069 196.000000
-35.44162369 19.72444153 6.63839722 196.000000
-35.65776825 19.92576790 5.16540527 196.000000
-35.85844040 20.11563873 3.68905640 196.000000
-35.21103668 19.90960693 7.42944336 196.000000
-35.75765610 20.27069283 3.88882446 196.000000
-35.15799332 20.08543396 7.33383179 196.000000
-35.09024429 20.14521599 7.53112793 196.000000
-35.59304047 20.49412537 4.08416748 196.000000
-34.98941803 20.29652977 7.73080444 195.000000
-35.40884781 20.59437561 4.87594604 196.000000
-35.06183243 20.52794456 6.74554443 196.000000
-35.31167221 20.75489426 4.87384033 196.000000
-35.16416931 20.77844810 5.66519165 196.000000
-35.26829910 20.92236519 4.77941895 196.000000
-35.09400940 20.93936729 5.56594849 196.000000
-35.42089462 21.20621300 3.20190430 196.000000
-35.41024780 21.28561211 3.20690918 196.000000
-35.20441055 21.28601265 4.19033813 196.000000
-34.84240723 21.20696068 6.15829468 196.000000
-34.90253448 21.34025574 5.46792603 196.000000
-35.48503113 21.71926117 1.73156738 196.000000
-35.16980362 21.66263771 3.40411377 196.000000
-35.11997986 21.74043465 3.40286255 196.000000
-34.44219971 21.48846245 7.54150391 196.000000
-34.56021118 21.63951111 6.55706787 196.000000
-34.54163742 21.73201561 6.35891724 196.000000
-34.61249161 21.85910797 5.66986084 196.000000
-34.97787857 22.14216232 3.21191406 196.000000
-34.88087845 22.19433403 3.50595093 196.000000
-34.41124725 22.05196190 6.16293335 196.000000
-34.15563583 22.00844193 7.54138184 196.000000
-34.16302490 22.10500145 7.34774780 196.000000
-34.00431824 22.12262154 8.03561401 196.000000
-34.30662155 22.37123489 5.86956787 196.000000
-34.03488541 22.32015991 7.44812012 196.000000
-34.74245453 22.79596901 2.62240601 196.000000
-34.83041382 22.94451523 1.73489380 196.000000
-34.09587860 22.64304352 6.16534424 196.000000
-34.49263000 22.95588875 3.30865479 196.000000
-33.78910446 22.67088509 7.64385986 196.000000
-34.37033081 23.08355522 3.60571289 196.000000
-34.31886292 23.15672493 3.60418701 196.000000
-33.87470627 22.99657822 6.36547852 196.000000
-33.83881378 23.07711029 6.26544189 196.000000
-33.99925613 23.25267982 4.98538208 196.000000
-33.79397583 23.24084282 5.96835327 196.000000
-33.67671967 23.26719093 6.56210327 196.000000
-34.22367096 23.66663170 2.72073364 196.000000
-33.40132523 23.30308342 7.74179077 196.000000
-34.02401352 23.74541855 3.40802002 196.000000
-33.95244598 23.79620361 3.70635986 196.000000
-33.45291901 23.60734177 6.65975952 196.000000
-33.56919098 23.77084541 5.57507324 196.000000
-33.71164322 23.93957901 4.49493408 196.000000
-34.04112625 24.22288513 2.03176880 196.000000
-33.26758957 23.87734795 6.75735474 196.000000
-33.44410706 24.07490540 5.27871704 196.000000
-33.63539886 24.28131294 3.70162964 196.000000
-33.47200394 24.27789879 4.59054565 195.000000
-33.37032318 24.30715561 4.98394775 196.000000
-32.96762466 24.17677879 7.24667358 196.000000
-33.74783707 24.70700455 1.92947388 196.000000
-32.96136475 24.34672356 6.85507202 196.000000
-33.63726425 24.83106041 2.12716675 196.000000
-33.06800079 24.60289383 5.47283936 196.000000
-33.40513229 24.88413811 3.11248779 196.000000
-33.22731781 24.86787415 3.99807739 196.000000
-33.43116379 25.08347702 2.32229614 196.000000
-33.10130310 24.97969055 4.29400635 196.000000
-32.99927521 25.00605583 4.68728638 196.000000
-32.70388412 24.93111801 6.26062012 196.000000
-32.46525955 24.87779808 7.64151001 196.000000
-32.74078751 25.12367630 5.57321167 196.000000
-33.01875687 25.38345718 3.40505981 196.000000
-32.40720749 25.12049103 7.04598999 196.000000
-32.51907349 25.28252029 5.96081543 196.000000
-32.82607269 25.56034851 3.59564209 196.000000
-32.01351547 25.15232468 8.81777954 195.000000
-32.87614822 25.76041794 2.80953979 195.000000
-33.13399124 25.99879456 0.83956909 80.000000
-33.34904480 26.22418404 -0.93499756 13.000000
-6.11116982 21.91561890 -8.77557373 5.000000
-5.22094774 21.00607300 1.74765015 18.000000
-5.19025135 20.94247437 1.53839111 76.000000
-5.15960217 20.87855721 1.32910156 195.000000
-4.97995901 20.67465782 2.90820313 196.000000
-4.81236935 20.47686195 4.48883057 196.000000
-4.90617847 20.52854538 2.78924561 196.000000
-4.80398846 20.36579323 3.77413940 196.000000
-4.63714314 20.16845322 5.35491943 196.000000
-4.59092331 20.08834839 5.34448242 196.000000
-4.67047739 20.09407806 4.14343262 196.000000
-4.43528891 19.83797646 6.41851807 196.000000
-4.78684521 20.12045670 1.73907471 196.000000
-4.79239464 20.05571365 1.43225098 196.000000
-4.51678467 19.76194763 4.20431519 196.000000
-4.37850380 19.55973053 5.78717041 196.000000
-4.38210487 19.52318573 5.18054199 196.000000
-4.05888367 19.18620110 8.54922485 196.000000
-4.13954639 19.21523285 7.14898682 196.000000
-4.24371052 19.23931313 5.64962769 196.000000
-4.36965466 19.31288910 3.55212402 196.000000
-4.12919092 19.05159950 5.92718506 196.000000
-4.42889977 19.27787018 1.84313965 196.000000
-3.87243247 18.72902298 8.09478760 196.000000
-3.83609247 18.65336800 7.98519897 196.000000
-3.77070355 18.54674911 8.37396240 196.000000
-4.07694101 18.75011253 4.38940430 196.000000
-3.90310669 18.54893494 5.96963501 196.000000
-4.18157625 18.75547409 1.98312378 196.000000
-4.08698177 18.59042740 3.06948853 196.000000
-3.80894852 18.29528618 5.94219971 196.000000
-3.87290931 18.30287170 4.74041748 196.000000
-4.08123350 18.41262054 1.94833374 196.000000
-3.80405831 18.11839485 4.82122803 196.000000
-3.69608140 17.97523117 5.60644531 196.000000
-3.66682744 17.86797142 5.89767456 196.000000
-3.95977235 18.08007050 1.71170044 196.000000
-3.87594700 17.95730591 2.19863892 196.000000
-3.70769453 17.72959137 4.07934570 196.000000
-3.67569470 17.64855385 4.07064819 196.000000
-3.81589222 17.72239876 1.77355957 196.000000
-3.72469211 17.59216499 2.36001587 196.000000
-3.45410180 17.30091667 5.33444214 196.000000
-3.51797223 17.27634621 4.33169556 196.000000
-3.39572215 17.11866188 5.31610107 196.000000
-3.30551910 16.98881721 5.90280151 196.000000
-3.25055861 16.88602066 6.19253540 196.000000
-3.35862160 16.92780495 4.29302979 196.000000
-3.22471213 16.75595856 5.57730103 196.000000
-3.46261144 16.87874222 2.38653564 196.000000
-3.32550597 16.70698738 3.57003784 196.000000
-3.31856060 16.61730766 3.46234131 196.000000
-3.19320250 16.45236206 4.64727783 196.000000
-3.26942492 16.46297455 3.14544678 196.000000
-3.38865972 16.47970772 1.44635010 196.000000
-3.17725134 16.24096489 3.72549438 196.000000
-3.06499577 16.08975220 4.61083984 196.000000
-2.85474586 15.82611179 7.08944702 196.000000
-2.89989352 15.80795193 5.98550415 196.000000
-3.12832069 15.94075394 2.69442749 196.000000
-3.02449274 15.79579163 3.48040771 196.000000
-2.97558856 15.69681168 3.57009888 196.000000
-2.80205464 15.49322414 5.25152588 196.000000
-2.79980659 15.40092373 5.24481201 196.000000
-2.72807026 15.28230476 5.63305664 196.000000
-2.83538532 15.31216812 3.73312378 196.000000
-2.86040807 15.27044582 3.02835083 196.000000
-2.81634116 15.14435101 3.41830444 196.000000
-2.45800757 14.78842068 7.48785400 196.000000
-2.58085966 14.82878590 5.38891602 196.000000
-2.67232776 14.81104755 4.18835449 196.000000
-2.74070382 14.80498314 2.78576660 196.000000
-2.81236243 14.79859924 1.48394775 196.000000
-2.48678875 14.47092915 5.15600586 196.000000
-2.43610597 14.33809853 5.64566040 196.000000
-2.57400680 14.38617897 3.34750366 196.000000
-2.67652988 14.40266228 1.64761353 196.000000
-2.59541750 14.24386978 2.53536987 196.000000
-2.37933040 14.00589180 4.81469727 196.000000
-2.22084188 13.81244183 6.49835205 196.000000
-2.46591616 13.94241905 2.80679321 196.000000
-2.59258699 13.94799995 1.00769043 196.000000
-2.26261830 13.62011719 4.78009033 196.000000
-2.15094185 13.46367168 5.86682129 196.000000
-2.29600883 13.51092052 3.46884155 196.000000
-2.08969665 13.28144264 5.64916992 196.000000
-2.25737810 13.34491634 2.95254517 196.000000
-2.08249879 13.11017418 5.23544312 196.000000
-2.30340195 13.21317959 1.84204102 196.000000
-2.26109719 13.10944080 2.03314209 196.000000
-1.90870655 12.73937035 6.50476074 196.000000
-2.24334502 12.92712116 1.61813354 196.000000
-2.04355812 12.67499638 4.09915161 196.000000
-2.08193946 12.63345528 3.09454346 196.000000
-1.91912115 12.43696499 4.87850952 196.000000
-2.04167008 12.42933178 3.27960205 196.000000
-2.02719688 12.34620476 2.97186279 196.000000
-1.94476974 12.21148968 3.56008911 196.000000
-1.83237720 12.05418587 4.54656982 196.000000
-1.60720086 11.81254768 7.02645874 196.000000
-1.83529234 11.88098812 4.03372192 196.000000
-1.63311040 11.65680695 6.21505737 196.000000
-1.85599649 11.74693012 2.92190552 196.000000
-1.84966493 11.66721249 2.51470947 196.000000
-2.00100160 11.70292854 0.01663208 196.000000
-1.85962987 11.52298260 1.40161133 196.000000
-1.61903632 11.24342823 4.48101807 196.000000
-1.61653900 11.16472816 4.17474365 196.000000
-1.67061067 11.12705326 2.97106934 196.000000
-1.56556129 10.94657993 4.25839233 196.000000
-1.81394947 11.04726601 0.46575928 196.000000
-1.72756970 10.87911606 1.65481567 196.000000
-1.55039322 10.67400551 3.53805542 196.000000
-1.44403470 10.51938629 4.62603760 196.000000
-1.56547689 10.52603054 2.52615356 196.000000
-1.67751217 10.49781990 0.92575073 196.000000
-1.61277115 10.37173080 1.31546021 196.000000
-1.32868958 10.09249592 4.79370117 196.000000
-1.51517355 10.11453438 2.19741821 196.000000
-1.37677741 9.93713665 3.58319092 196.000000
-1.36062527 9.84438705 3.47631836 196.000000
-1.37828314 9.77428150 2.77066040 196.000000
-1.34416699 9.66821957 2.76220703 196.000000
-1.33233738 9.57702065 2.45495605 196.000000
-1.23532665 9.42807674 3.44375610 196.000000
-1.36980271 9.40859127 1.54458618 196.000000
-1.39104569 9.33874416 0.93978882 195.000000
-1.12900496 9.07851791 4.01922607 196.000000
-0.93950343 8.84163094 6.50280762 196.000000
-1.06106412 8.83728600 4.40280151 196.000000
-1.05337954 8.74733734 4.19656372 196.000000
-1.19542933 8.72847176 2.19778442 196.000000
-1.07439268 8.56265068 3.38494873 196.000000
-1.07102287 8.47343254 2.97836304 196.000000
-1.05505705 8.35081959 3.27194214 196.000000
-0.97129744 8.20914841 3.96115112 196.000000
-0.95365101 8.10976219 3.75387573 196.000000
-0.96737629 8.00557518 3.64907837 196.000000
-0.97919506 7.92407417 3.04333496 196.000000
-0.81571817 7.73165751 4.82864380 196.000000
-0.85697567 7.66801548 3.82446289 196.000000
-0.73374182 7.50240850 5.21252441 196.000000
-0.84069818 7.47861099 3.31167603 196.000000
-0.77607787 7.34918261 3.90280151 196.000000
-0.75101173 7.21760178 4.19555664 196.000000
-0.77803057 7.14252138 3.39065552 196.000000
-0.73968822 7.02710390 3.48254395 196.000000
-0.45365733 6.73727846 7.36245728 196.000000
-0.62944865 6.75242519 4.66564941 196.000000
-0.74383217 6.72767019 2.66513062 196.000000
-0.73013729 6.60289431 2.95925903 196.000000
-0.61679834 6.43996000 3.94696045 196.000000
-0.60419238 6.34012365 3.84091187 196.000000
-0.46670851 6.25950098 5.73419189 196.000000
-0.84288877 6.26612282 0.24124146 196.000000
-0.73327154 6.10657883 1.32992554 196.000000
-0.59039980 5.90630007 3.41796875 196.000000
-0.38439295 5.69051218 5.70150757 196.000000
-0.61050957 5.72428513 2.30697632 196.000000
-0.40814275 5.51310778 4.69140625 196.000000
-0.30699804 5.35933781 5.68075562 196.000000
-0.61191118 5.43364573 1.18988037 196.000000
-0.43904170 5.23938370 3.17584229 196.000000
-0.45997110 5.12850666 2.87133789 196.000000
-0.33070108 4.95890093 4.25942993 196.000000
-0.28373784 4.83688307 4.65213013 196.000000
-0.24050549 4.69089985 5.24472046 196.000000
-0.46621090 4.71421242 1.85003662 196.000000
-0.37341318 4.56403255 2.73999023 196.000000
-0.33067054 4.41731024 3.33270264 196.000000
-0.07378339 4.18179226 6.51531982 196.000000
-0.22855766 4.03931856 4.11215210 196.000000
-0.10818096 3.87546897 5.40112305 196.000000
-0.36943477 3.90872908 1.50790405 196.000000
-0.21752661 3.70268273 3.49530029 196.000000
-0.03103835 3.40579462 5.47662354 196.000000
-0.17271487 3.27021003 2.87258911 196.000000
-0.01098812 3.08652806 4.76004028 196.000000
-0.10329002 2.90154600 3.25439453 196.000000
-0.07702743 2.78281856 3.24789429 196.000000
-0.01847837 2.65244746 3.84069824 196.000000
-0.08463816 2.57640100 2.53823853 196.000000
-0.01640398 2.41577244 3.53051758 196.000000
-0.05447948 1.50372696 1.59378052 196.000000
-0.01318636 -5.35384178 -6.41412354 65.000000
-0.02199380 -5.75600004 -6.72134399 75.000000
-0.28152341 -5.84470987 -10.71496582 80.000000
-0.06436858 -6.01523447 -7.82553101 85.000000
-0.12610400 -6.15365696 -8.52526855 89.000000
-0.18147570 -6.27112675 -9.42553711 88.000000
-0.24793909 -6.39606953 -10.62588501 85.000000
-0.21096738 -6.53719139 -10.32986450 79.000000
-0.49426547 -6.62422323 -14.52197266 89.000000
-0.60684979 -6.88471699 -16.62316895 79.000000
-0.29075322 -7.07771540 -11.83587646 89.000000
-0.49854127 -7.18086433 -14.93054199 91.000000
-0.62077922 -7.30524206 -16.92861938 195.000000
-0.45689270 -7.47702885 -14.33581543 195.000000
-0.39629307 -7.61379623 -13.53970337 196.000000
-0.31929481 -7.76103449 -12.64462280 196.000000
-0.15578410 -7.92929459 -10.05157471 196.000000
-0.53660220 -8.02301121 -15.64001465 195.000000
-0.52886319 -8.16449642 -15.74240112 94.000000
-0.62780052 -8.30991745 -16.94006348 81.000000
-0.28979906 -8.47843266 -12.25372314 29.000000
-0.67092532 -8.58111858 -17.84204102 20.000000
-0.59821212 -8.74105644 -16.54547119 66.000000
-0.85289317 -8.86719608 -20.43847656 85.000000
-0.77995265 -9.00582409 -19.44241333 81.000000
-0.69060165 -9.15472984 -18.34722900 77.000000
-0.88348889 -9.28902340 -21.34228516 78.000000
-0.93196648 -9.43204308 -22.24221802 74.000000
-0.81844938 -9.57228374 -20.64727783 56.000000
-0.96727151 -9.72393608 -22.54272461 40.000000
-1.17724228 -9.85373020 -25.63653564 28.000000
-1.05434752 -10.00456715 -24.04223633 40.000000
-1.34400463 -10.14609241 -28.43359375 51.000000
-1.40441525 -10.30540180 -29.03179932 52.000000
-135.37788391 11.21840096 -1.33843994 6.000000
-135.11688232 11.30419159 -0.79067993 9.000000
-133.59875488 11.20926285 2.91101074 13.000000
-134.14886475 11.40797520 1.52487183 25.000000
-132.54551697 11.30777264 5.40792847 49.000000
-132.66844177 11.43335629 5.03314209 68.000000
-133.45115662 11.65991879 2.98669434 80.000000
-132.55656433 11.65395451 5.10949707 87.000000
-133.38690186 11.87830353 2.97418213 93.000000
-131.88658142 11.78964043 6.68368530 195.000000
-133.56230164 12.14346218 2.41329956 195.000000
-133.26350403 12.21898460 3.05355835 195.000000
-133.29019165 12.34442139 2.96414185 196.000000
-131.02915955 12.12776470 8.51913452 196.000000
-131.25177002 12.27550125 7.86224365 196.000000
-131.28906250 12.39095974 7.77658081 196.000000
-131.02755737 12.46833420 8.32412720 196.000000
-132.16993713 12.75449276 5.45468140 196.000000
-131.31282043 12.74413490 7.48477173 196.000000
-131.46012878 12.88087654 7.01293945 196.000000
-132.21313477 13.09818363 5.06237793 196.000000
-131.83943176 13.15771675 5.88775635 196.000000
-131.64176941 13.24658203 6.35394287 196.000000
-131.42770386 13.31944942 6.81256104 196.000000
-131.61132813 13.46145248 6.24786377 196.000000
-131.68325806 13.58657932 5.96115112 196.000000
-131.87750244 13.72091293 5.40029907 196.000000
-131.67935181 13.80804443 5.86633301 196.000000
-131.37953186 13.87555408 6.50625610 196.000000
-131.59941101 14.02295113 5.84869385 196.000000
-133.08078003 14.36673260 2.03994751 196.000000
-131.40893555 14.21367836 6.21697998 196.000000
-130.92338562 14.25033188 7.32022095 196.000000
-131.92156982 14.52003574 4.71615601 196.000000
-130.43569946 14.39157581 8.42977905 196.000000
-130.54354858 14.52037811 8.05004883 196.000000
-130.98483276 14.70242405 6.83609009 196.000000
-132.50215149 15.05129910 3.04229736 195.000000
-130.90417480 14.90649891 6.92593384 196.000000
-131.12243652 15.05311394 6.26794434 196.000000
-131.07125854 15.15911484 6.36282349 196.000000
-131.26327515 15.29222870 5.80139160 196.000000
-131.51794434 15.44499397 5.05059814 196.000000
-130.58763123 15.40300083 7.26593018 196.000000
-130.37205505 15.46841812 7.72402954 196.000000
-131.61579895 15.78748417 4.57440186 196.000000
-130.90757751 15.78013611 6.23348999 196.000000
-130.87669373 15.87569714 6.22802734 196.000000
-130.16873169 15.86662483 7.88720703 196.000000
-129.49797058 15.86268997 9.45373535 196.000000
-130.86056519 16.20180511 5.92144775 196.000000
-131.51040649 16.42416573 4.25451660 196.000000
-130.77667236 16.39929771 6.01028442 196.000000
-129.80021667 16.34349442 8.42236328 196.000000
-130.86578369 16.63472366 5.63146973 195.000000
-130.50158691 16.67125702 6.46011353 196.000000
-130.44857788 16.77270126 6.55438232 196.000000
-130.99607849 16.97586632 5.06124878 196.000000
-130.32511902 16.96682358 6.62756348 196.000000
-130.43072510 17.08609390 6.35482788 196.000000
-130.53472900 17.21178818 5.97412109 195.000000
-130.01144409 17.22666359 7.16955566 195.000000
-129.61026001 17.25325394 8.09082031 196.000000
-130.08273315 17.44366837 6.78277588 195.000000
-130.32379150 17.59542656 6.13497925 196.000000
-129.00091553 17.45574570 9.37429810 195.000000
-130.09934998 17.75876045 6.48974609 196.000000
-130.68128967 17.96982956 4.90325928 196.000000
-129.82643127 17.92113876 6.93319702 196.000000
-129.89237976 18.03862381 6.64483643 196.000000
-129.55471802 18.07533455 7.48446655 196.000000
-129.36283875 18.14514160 7.84515381 196.000000
-129.75967407 18.32275200 6.72210693 195.000000
-129.23791504 18.32416725 8.02529907 196.000000
-129.89189148 18.54944801 6.25299072 196.000000
-129.87358093 18.65236092 6.25381470 196.000000
-129.50875854 18.67966080 7.08206177 196.000000
-129.64721680 18.80943680 6.60791016 196.000000
-128.59936523 18.71827888 9.20544434 196.000000
-130.39140320 19.15874863 4.55770874 196.000000
-128.70372009 18.93478584 8.72476196 196.000000
-128.36431885 18.97309494 9.45623779 196.000000
-128.16175842 19.03840828 9.92056274 196.000000
-129.22900391 19.33522034 7.13140869 196.000000
-130.02714539 19.59056473 4.98739624 196.000000
-130.31097412 19.74794388 4.14184570 196.000000
-129.34725952 19.66497231 6.44998169 196.000000
-128.75070190 19.65162086 7.83062744 196.000000
-128.48580933 19.69427490 8.48428345 195.000000
-127.74282837 19.65075684 10.23596191 196.000000
-130.22534180 20.23621559 3.82434082 196.000000
-128.79743958 20.04946327 7.34255981 196.000000
-129.83973694 20.35648155 4.65246582 196.000000
-129.82908630 20.45569801 4.54861450 196.000000
-128.80465698 20.34534264 7.04644775 196.000000
-129.55303955 20.59535599 5.09823608 196.000000
-129.13948059 20.61362648 6.01486206 196.000000
-129.23831177 20.73354149 5.63256836 196.000000
-129.41201782 20.86067390 5.17263794 196.000000
-128.01080322 20.67909241 8.59423828 196.000000
-128.43865967 20.86426544 7.37689209 196.000000
-128.79479980 21.02752686 6.45288086 196.000000
-128.81994629 21.13168907 6.25601196 196.000000
-131.62213135 21.80062103 -0.99273682 195.000000
-129.23509216 21.41405296 4.93420410 196.000000
-128.01800537 21.26378059 7.89208984 196.000000
-128.99400330 21.55412865 5.39031982 196.000000
-128.68986511 21.58983421 6.02838135 196.000000
-129.62663269 21.88122940 3.51132202 196.000000
-127.50967407 21.53251648 8.79327393 196.000000
-128.40956116 21.81630516 6.36889648 196.000000
-128.75205994 21.98556900 5.44024658 195.000000
-128.20428467 21.95977211 6.73190308 196.000000
-127.64498901 21.93939781 8.01950073 196.000000
-128.13281250 22.13870430 6.71945190 196.000000
-128.26577759 22.26309776 6.24362183 196.000000
-129.02952576 22.51213646 4.19403076 196.000000
-127.73191833 22.33420372 7.44155884 196.000000
-128.92039490 22.68236732 4.27401733 196.000000
-128.91876221 22.76953506 4.17330933 196.000000
-127.36697388 22.53427505 8.07061768 196.000000
-127.60845184 22.68085289 7.31610107 196.000000
-128.72253418 23.01507950 4.33377075 196.000000
-127.92057037 22.92901611 6.27505493 196.000000
-126.88903809 22.80081367 8.76931763 196.000000
-128.76512146 23.30115318 3.83721924 196.000000
-126.45229340 22.89363861 9.68432617 196.000000
-127.64910126 23.23911285 6.51995850 196.000000
-127.85289001 23.37740707 5.85787964 196.000000
-128.09271240 23.52366638 5.10287476 195.000000
-126.88259125 23.34320450 8.16921997 195.000000
-128.24726868 23.73643112 4.53610229 196.000000
-127.03547668 23.56235504 7.49472046 196.000000
-127.56707764 23.76402664 6.10458374 196.000000
-127.29852295 23.79709053 6.64920044 196.000000
-126.63128662 23.74096680 8.21517944 196.000000
-127.44030762 24.01301193 6.07794189 196.000000
-127.11106873 24.02300262 6.81231689 196.000000
-126.04562378 23.87580109 9.39968872 196.000000
-126.67274475 24.10736275 7.72650146 195.000000
-127.56271362 24.39895630 5.29953003 196.000000
-128.13822937 24.61194992 3.71231079 196.000000
-126.63894653 24.36392975 7.41403198 196.000000
-125.03200531 24.08954620 11.39456177 196.000000
-125.44091034 24.27158737 10.27816772 196.000000
-126.99212646 24.70670319 6.18325806 195.000000
-127.69910431 24.95857620 4.22003174 196.000000
-126.09312439 24.68065643 8.20071411 196.000000
-125.94472504 24.72756577 8.47052002 196.000000
-125.78442383 24.77965546 8.73626709 196.000000
-128.17756653 25.42062378 2.51098633 196.000000
-125.61014557 24.90778732 9.00381470 196.000000
-126.35178375 25.16820526 6.94729614 196.000000
-126.54207611 25.30030251 6.38760376 195.000000
-126.74185944 25.43533516 5.72418213 195.000000
-126.47503662 25.45232201 6.37609863 195.000000
-126.67454529 25.58708763 5.71261597 196.000000
-125.79273224 25.46792030 7.83590698 196.000000
-125.09352875 25.38158798 9.60250854 196.000000
-125.18497467 25.48984528 9.21768188 196.000000
-126.96858978 25.99825859 4.46630859 196.000000
-125.40329742 25.71455002 8.35485840 196.000000
-126.71760559 26.11320686 4.81094360 196.000000
-126.19880676 26.06734276 6.11303711 196.000000
-126.39706421 26.20106316 5.44906616 196.000000
-124.80931091 25.89945221 9.43496704 196.000000
-125.76255798 26.21327400 6.81976318 196.000000
-126.06824493 26.37235832 5.87692261 196.000000
-125.68147278 26.36362839 6.80316162 196.000000
-127.18412781 26.80343056 2.79788208 195.000000
-125.51404572 26.48526382 6.96572876 196.000000
-125.27097321 26.50979996 7.52017212 196.000000
-125.15731812 26.55856895 7.69638062 196.000000
-124.42173004 26.46361542 9.44830322 196.000000
-126.11565399 26.95922470 4.98422241 196.000000
-125.37988281 26.86356544 6.73608398 196.000000
-125.00296021 26.85488701 7.55859375 196.000000
-125.48864746 27.04808426 6.25820923 196.000000
-125.64907074 27.17096138 5.68649292 196.000000
-125.05715179 27.10823441 7.06661987 196.000000
-124.83563232 27.12833595 7.52142334 196.000000
-125.27256012 27.31748581 6.30957031 196.000000
-125.53979492 27.46634865 5.45877075 195.000000
-125.31805420 27.48574066 5.91348267 89.000000
-124.69083405 27.41158867 7.38659668 47.000000
-126.74514008 28.00642014 1.88748169 11.000000
-96.04492950 22.66743088 1.48709106 15.000000
-94.91268921 22.29417419 4.99066162 78.000000
-95.36575317 22.34570885 3.34973145 94.000000
-95.44660187 22.28680611 3.05450439 195.000000
-95.25420380 22.16507339 3.50961304 196.000000
-94.79814911 21.97321892 4.82244873 195.000000
-95.43839264 22.07497215 2.61364746 196.000000
-94.39435577 21.71439171 5.93557739 196.000000
-94.46649170 21.66221619 5.53335571 196.000000
-93.77725983 21.40926933 7.60906982 196.000000
-94.06600189 21.41658401 6.54379272 196.000000
-93.55062866 21.19662857 8.15097046 196.000000
-93.09655762 21.00600243 9.46466064 196.000000
-93.23921204 20.97421074 8.87603760 195.000000
-94.12856293 21.12013626 5.90802002 196.000000
-93.90876007 20.98985100 6.45919800 196.000000
-93.93437195 20.92617035 6.25180054 195.000000
-93.53728485 20.73684692 7.47821045 196.000000
-94.66197968 20.95269203 3.64395142 196.000000
-93.56638336 20.59631348 7.05560303 196.000000
-95.09910583 20.91472816 1.88610840 195.000000
-92.69985199 20.21567917 9.69607544 196.000000
-93.06513214 20.23424911 8.34069824 196.000000
-94.14170074 20.43635368 4.70053101 196.000000
-93.54396057 20.20853043 6.49191284 196.000000
-93.26738739 20.06245422 7.23443604 196.000000
-93.60309601 20.07105637 5.97418213 196.000000
-94.38513184 20.18165970 3.39035034 195.000000
-93.05995178 19.77119827 7.56668091 196.000000
-93.10449982 19.70535851 7.26025391 195.000000
-94.73074341 20.02486801 1.90991211 195.000000
-93.31933594 19.59437370 6.37295532 195.000000
-93.18939209 19.48395920 6.63897705 196.000000
-94.22140503 19.64836693 3.19210815 196.000000
-93.02641296 19.27720261 6.99200439 195.000000
-93.88557434 19.41021729 4.01422119 195.000000
-93.40515137 19.19923401 5.52844238 196.000000
-93.02536011 19.03004837 6.65734863 196.000000
-93.24486542 19.00393867 5.77856445 196.000000
-94.04354858 19.10531235 3.09448242 196.000000
-92.83962250 18.73148918 6.89157104 196.000000
-93.01238251 18.69653702 6.20761108 196.000000
-92.94170380 18.59840393 6.28320313 196.000000
-92.88232422 18.50661469 6.36273193 196.000000
-93.75791931 18.63175774 3.28475952 196.000000
-92.82672882 18.31677246 6.33099365 196.000000
-94.17730713 18.55747604 1.72955322 195.000000
-93.64295197 18.34668732 3.33245850 196.000000
-93.03326416 18.12238693 5.22586060 196.000000
-92.32410431 17.85801888 7.50512695 196.000000
-92.08065796 17.71743011 8.15393066 196.000000
-93.00684357 17.85644150 4.98782349 196.000000
-93.39878845 17.85120964 3.63943481 195.000000
-92.69227600 17.60106277 5.81594849 195.000000
-94.19667816 17.87180328 0.73977661 195.000000
-93.83622742 17.68878937 1.87387085 196.000000
-92.63856506 17.32502556 5.67398071 196.000000
-92.74300385 17.26370239 5.17724609 196.000000
-93.00161743 17.22859192 4.31011963 196.000000
-92.73029327 17.07992172 5.05487061 196.000000
-92.80599213 17.01078796 4.65365601 196.000000
-92.31503296 16.81617928 6.16647339 196.000000
-92.88193512 16.85844040 4.14166260 196.000000
-91.97615051 16.56542015 6.98806763 196.000000
-92.60067749 16.61950493 4.77212524 195.000000
-92.54206848 16.50970650 4.95581055 196.000000
-91.95462799 16.28955460 6.75189209 196.000000
-93.50196075 16.54795074 1.47879028 196.000000
-92.42321014 16.20459557 5.00244141 196.000000
-93.20260620 16.29340553 2.31234741 196.000000
-92.06823730 15.95207310 5.92407227 196.000000
-92.69232941 16.00053406 3.70782471 196.000000
-91.59725952 15.66089058 7.33157349 196.000000
-91.44375610 15.53757668 7.69525146 196.000000
-91.77855682 15.50790215 6.53781128 196.000000
-92.09691620 15.49149609 5.37643433 196.000000
-92.14512634 15.41101933 5.07122803 196.000000
-92.56633759 15.39771843 3.62707520 196.000000
-91.35937500 15.05058384 7.53073120 196.000000
-92.35742950 15.17352772 4.07186890 196.000000
-92.83726501 15.18378735 2.33309937 196.000000
-95.58815002 15.67702007 -6.95675659 196.000000
-96.33683777 15.74558067 -9.55242920 196.000000
-96.84402466 15.75655079 -11.38748169 196.000000
-96.63275146 15.60138512 -10.72906494 196.000000
-95.42766571 15.25622177 -6.82455444 196.000000
-96.04997253 15.28982353 -9.04193115 196.000000
-96.24126434 15.21879387 -9.72171021 196.000000
-96.54752350 15.18447113 -10.88757324 196.000000
-95.97531891 14.97295666 -9.08569336 196.000000
-96.91288757 15.06781292 -12.35498047 196.000000
-95.64128876 14.69406223 -8.15835571 196.000000
-96.14860535 14.69903851 -9.99346924 196.000000
-96.78169250 14.73388195 -12.20730591 195.000000
-97.03081512 14.67062378 -13.07821655 196.000000
-96.24787903 14.41184616 -10.61026001 196.000000
-96.88108826 14.43067932 -12.72039795 196.000000
-96.24189758 14.20149326 -10.73031616 196.000000
-96.37664795 14.12731552 -11.32229614 196.000000
-95.57749939 13.87269211 -8.75421143 196.000000
-95.54077148 13.76431274 -8.77218628 196.000000
-95.99076080 13.75153828 -10.41613770 196.000000
-95.50744629 13.54686642 -8.79602051 196.000000
-95.78584290 13.49923420 -9.86608887 196.000000
-95.89252472 13.41743755 -10.36218262 196.000000
-96.48542786 13.42927933 -12.48449707 196.000000
-96.30644226 13.27755260 -11.92016602 196.000000
-95.82398224 13.08683300 -10.40335083 196.000000
-96.47404480 13.10720253 -12.71710205 196.000000
-95.43791199 12.80543232 -9.38604736 196.000000
-96.21370697 12.84064388 -11.97491455 196.000000
-95.80663300 12.65884018 -10.74862671 196.000000
-95.37132263 12.47210979 -9.42639160 195.000000
-95.63297272 12.40854454 -10.29299927 196.000000
-95.25514984 12.23280430 -9.16198730 196.000000
-94.67795563 12.00725365 -7.25723267 196.000000
-95.55662537 12.06363964 -10.33654785 196.000000
-94.87648010 11.83865738 -8.14880371 196.000000
-94.87048340 11.73145676 -8.26147461 196.000000
-95.04669189 11.66310787 -8.94461060 196.000000
-95.52561188 11.64279461 -10.68429565 196.000000
-94.60771179 11.35692120 -7.63024902 196.000000
-96.39812469 11.57004356 -13.77276611 196.000000
-95.46277618 11.30081177 -10.72293091 196.000000
-95.85614014 11.26205444 -12.17550659 196.000000
-95.39534760 11.05843067 -10.65243530 196.000000
-94.63188934 10.82185459 -8.17648315 196.000000
-95.08258057 10.79185677 -9.82037354 196.000000
-94.16678619 10.51042271 -6.76525879 196.000000
-95.04474640 10.55310631 -9.84512329 196.000000
-94.47074890 10.34463120 -8.04241943 196.000000
-95.01780701 10.33476925 -9.96981812 196.000000
-96.23744202 10.41821671 -14.09487915 196.000000
-95.15166473 10.12287331 -10.56857300 196.000000
-96.09687042 10.17705059 -13.83651733 196.000000
-95.21153259 9.90343666 -10.87619019 196.000000
-95.17898560 9.78614521 -10.89224243 195.000000
-95.64075470 9.75693893 -12.53240967 195.000000
-94.35771942 9.43310738 -8.33493042 196.000000
-95.29260254 9.46077442 -11.50274658 196.000000
-94.43648529 9.20849419 -8.74133301 196.000000
-94.52915955 9.11746883 -9.13644409 196.000000
-94.21345520 8.95367527 -8.19433594 196.000000
-94.78908539 8.93934536 -10.21752930 196.000000
-94.75756836 8.82045364 -10.23306274 196.000000
-95.09597778 8.74662590 -11.38973999 196.000000
-94.35508728 8.51555729 -9.01055908 196.000000
-94.56180573 8.44028282 -9.78857422 196.000000
-95.01398468 8.38247204 -11.32821655 196.000000
-95.32347107 8.31457329 -12.49304199 196.000000
-94.70769501 8.11103058 -10.49295044 196.000000
-95.52880859 8.10705948 -13.27795410 196.000000
-95.27123260 7.95114326 -12.52670288 195.000000
-93.99327087 7.64205551 -8.32644653 195.000000
-94.59832001 7.61036205 -10.34136963 196.000000
-93.83120728 7.37960625 -7.86529541 196.000000
-95.01995087 7.43828106 -11.99984741 196.000000
-95.72660065 7.42378521 -14.50570679 196.000000
-94.40428925 7.11964750 -10.10937500 196.000000
-94.37560272 6.98460054 -10.01992798 196.000000
-95.50727844 7.02877569 -13.96313477 196.000000
-94.83714294 6.82092381 -11.77020264 196.000000
-94.32654572 6.62936115 -10.15557861 196.000000
-94.63707733 6.55398798 -11.31988525 195.000000
-94.58080292 6.41355276 -11.13424683 196.000000
-94.47764587 6.28674459 -10.85745239 196.000000
-94.59034729 6.18219900 -11.35076904 196.000000
-94.20559692 6.00370026 -10.01135254 196.000000
-94.26202393 5.89099741 -10.31283569 196.000000
-94.17713165 5.75884914 -10.13513184 196.000000
-94.23485565 5.63282013 -10.33242798 196.000000
-94.16080475 5.50926399 -10.15106201 196.000000
-94.24594879 5.39901066 -10.54815674 196.000000
-93.99309540 5.23134899 -9.69091797 196.000000
-93.86291504 5.10019922 -9.31759644 196.000000
-93.80717468 4.97100592 -9.23522949 196.000000
-94.06236267 4.88132668 -10.20721436 196.000000
-94.54483032 4.80685139 -11.84197998 196.000000
-93.48284149 4.55762911 -8.30499268 196.000000
-92.15672302 4.26959991 -3.90838623 196.000000
-90.74658966 3.97357154 0.77606201 196.000000
-90.01475525 3.76326323 3.16003418 196.000000
-89.09582520 3.53893757 6.21859741 196.000000
-90.08667755 3.52675581 2.85855103 196.000000
-89.41204834 3.32540083 5.05117798 196.000000
-88.49383545 3.10385513 8.11019897 195.000000
-88.97682190 3.02887750 6.47598267 196.000000
-88.58514404 2.86288548 7.71023560 196.000000
-89.20920563 2.81460619 5.49279785 195.000000
-88.46118164 2.61556435 7.97702026 196.000000
-90.07263947 2.66541719 2.50747681 196.000000
-88.14037323 2.33365798 9.01916504 196.000000
-88.76487732 2.27028251 6.90576172 196.000000
-88.51519012 2.12102151 7.66113281 196.000000
-88.29391479 1.97510445 8.32070923 196.000000
-88.25188446 1.84465420 8.51211548 196.000000
-88.87656403 1.78945625 6.29495239 196.000000
-87.97927856 1.57148564 9.25634766 196.000000
-89.29014587 1.59465539 4.74078369 196.000000
-88.42147064 1.38052928 7.60650635 196.000000
-88.14477539 1.22882962 8.45837402 196.000000
-88.93845367 1.18636835 5.66583252 196.000000
-88.30599213 0.99452567 7.87185669 196.000000
-88.90271759 0.93006653 5.75073242 196.000000
-88.09162140 0.72533327 8.42529297 196.000000
-89.44893646 0.72152424 3.81851196 196.000000
-87.80335236 0.44522130 9.37396240 196.000000
-88.73815918 0.40992355 6.10198975 196.000000
-88.40635681 0.25299206 7.14639282 196.000000
-88.45069122 0.12801591 7.05105591 196.000000
-88.99156952 0.05195788 5.12200928 196.000000
-88.91387939 -0.09358050 5.40734863 195.000000
-88.27313232 -0.27798462 7.50726318 196.000000
-88.76774597 -0.35219082 5.77340698 196.000000
-89.53453064 -0.42394838 3.18112183 195.000000
-89.18527222 -0.57402307 4.32516479 196.000000
-88.20766449 -0.78575724 7.57669067 196.000000
-88.15855408 -0.91725540 7.66259766 196.000000
-89.06555939 -0.96925825 4.48669434 196.000000
-88.40777588 -1.14366090 6.68646240 196.000000
-88.66822052 -1.25084734 5.71725464 196.000000
-89.12611389 -1.35470355 4.18054199 196.000000
-88.91856384 -1.49209690 4.84552002 196.000000
-89.15113831 -1.60362458 3.97235107 196.000000
-89.04730225 -1.75333786 4.35473633 196.000000
-87.81888580 -1.97640896 8.47097778 196.000000
-88.67973328 -2.03282070 5.49026489 196.000000
-87.87333679 -2.22236204 8.16760254 196.000000
-88.52857971 -2.31620860 5.95968628 196.000000
-88.36863708 -2.45826840 6.43026733 196.000000
-88.38761139 -2.59036088 6.43243408 196.000000
-87.69425201 -2.76906395 8.72634888 196.000000
-88.48977661 -2.84571671 5.93475342 196.000000
-88.03163910 -3.01034117 7.56838989 196.000000
-88.04097748 -3.14105558 7.46368408 196.000000
-89.28600311 -3.19263816 3.13687134 196.000000
-89.46384430 -3.31466079 2.45651245 96.000000
-88.83723450 -3.47820807 4.56210327 87.000000
-88.76273346 -3.61596751 4.74554443 74.000000
-89.48380280 -3.69713163 2.24505615 73.000000
-90.70172119 -3.77151895 -1.88150024 72.000000
-91.07639313 -3.88603687 -3.23339844 75.000000
-90.88983917 -4.03329134 -2.66589355 76.000000
-90.82680511 -4.17568207 -2.37475586 73.000000
-89.68646240 -4.37422276 1.45596313 62.000000
-90.67897797 -4.45759058 -2.00701904 63.000000
-91.28826141 -4.55388927 -4.12329102 72.000000
-92.02988434 -4.66598558 -6.61801147 78.000000
-90.60967255 -4.87542677 -1.82717896 72.000000
-91.32182312 -4.97894526 -4.33026123 75.000000
-92.41014099 -5.06848764 -7.97341919 75.000000
-92.33690643 -5.21227360 -7.78912354 68.000000
-92.68652344 -5.34867001 -8.93978882 74.000000
-93.79164124 -5.44184351 -12.78634644 77.000000
-93.27967072 -5.59647322 -11.06314087 71.000000
-93.40319824 -5.73377800 -11.55038452 77.000000
-93.27445221 -5.88172770 -11.17367554 74.000000
-93.23972321 -6.01608419 -11.08184814 58.000000
-92.41242981 -6.20172644 -8.20077515 44.000000
-94.86379242 -6.25454426 -16.65426636 7.000000
-48.53001404 1.62655139 -8.91528320 38.000000
-49.15407562 1.86388493 -12.25122070 80.000000
-49.26529694 2.00374746 -12.93801880 87.000000
-48.89063263 2.07421303 -11.07144165 87.000000
-49.06407166 2.23506474 -12.15301514 88.000000
-48.65625381 2.29147220 -9.88592529 87.000000
-48.50070572 2.39606929 -9.19857788 87.000000
-47.94345856 2.43077946 -6.34927368 89.000000
-48.44493484 2.64785266 -9.19961548 91.000000
-48.42014313 2.76711273 -8.99621582 89.000000
-47.68032074 2.76615500 -5.16424561 79.000000
-47.99874496 2.95214844 -7.03186035 83.000000
-47.88227081 3.05344939 -6.33712769 85.000000
-47.43437958 3.10079837 -4.07748413 78.000000
-46.69500732 3.09288478 -0.24557495 80.000000
-46.76816177 3.22273755 -0.73580933 89.000000
-47.26029205 3.44522929 -3.38378906 85.000000
-46.41168213 3.41236305 1.03771973 67.000000
-46.60152054 3.57461786 -0.14196777 75.000000
-46.37238693 3.65680671 0.93853760 84.000000
-46.12739182 3.72764850 2.32098389 93.000000
-45.78901672 3.78667593 3.99105835 195.000000
-45.81456375 3.91630077 3.69580078 196.000000
-45.46838379 3.96147561 5.46572876 196.000000
-45.55821991 4.10623074 4.97952271 196.000000
-45.78336334 4.27564096 3.60336304 196.000000
-44.91785812 4.22329569 8.12313843 196.000000
-45.61721802 4.48190594 4.39572144 196.000000
-45.07873535 4.49399710 7.14672852 196.000000
-45.37585449 4.67871332 5.37753296 196.000000
-45.39252472 4.79480028 5.18209839 196.000000
-44.86394501 4.80818367 8.03686523 196.000000
-45.25123215 5.01294851 5.77639771 196.000000
-45.32194901 5.14022493 5.28622437 196.000000
-45.03751373 5.20111513 6.66149902 196.000000
-45.57883453 5.44368267 3.71871948 196.000000
-45.35895157 5.50750637 4.80072021 196.000000
-44.89305496 5.52652359 7.15859985 196.000000
-45.38739395 5.75844431 4.30859375 196.000000
-45.16677094 5.83299303 5.49282837 196.000000
-44.79142380 5.86960125 7.35937500 196.000000
-45.24110794 6.08276653 4.80569458 196.000000
-45.11898804 6.17636013 5.29660034 196.000000
-45.56742477 6.40334558 2.84518433 196.000000
-45.54591370 6.50970030 2.84631348 196.000000
-44.80865860 6.45851946 6.67807007 196.000000
-44.84889984 6.58860588 6.28460693 196.000000
-45.10802460 6.76179171 4.91555786 196.000000
-44.64205551 6.77102423 7.27337646 196.000000
-44.37016296 6.94627333 8.55545044 196.000000
-44.51054764 7.08942127 7.67218018 196.000000
-44.73036957 7.26297951 6.29614258 196.000000
-44.82361221 7.40583992 5.60787964 196.000000
-44.72063065 7.49057531 6.20407104 196.000000
-44.72342682 7.61081791 6.00711060 196.000000
-44.69002533 7.72186089 6.00668335 196.000000
-44.74654388 7.85555601 5.51495361 196.000000
-44.59654617 7.93745947 6.30606079 196.000000
-44.12335587 7.92419529 8.76361084 196.000000
-45.02534485 8.27570152 3.65377808 196.000000
-44.72132492 8.31606960 5.12716675 196.000000
-44.38378143 8.33667469 7.00064087 196.000000
-44.18776703 8.40329933 7.88449097 196.000000
-43.90192795 8.44540501 9.25964355 196.000000
-44.03993607 8.58900356 8.37643433 196.000000
-44.01500702 8.70023346 8.47967529 196.000000
-44.84217453 9.04072571 3.76290894 196.000000
-44.35842514 9.02800751 6.21887207 196.000000
-44.04708481 9.05014706 7.79202271 196.000000
-44.52386856 9.29837704 5.14410400 196.000000
-44.27333832 9.34698963 6.32272339 196.000000
-44.42790222 9.49656963 5.34118652 196.000000
-44.13320923 9.53181171 6.91824341 196.000000
-44.31254578 9.69904900 5.73873901 196.000000
-44.04397583 9.74030018 7.01553345 196.000000
-44.21575546 9.89503002 5.93576050 196.000000
-43.90306091 9.92236900 7.61102295 196.000000
-44.15319443 10.11034203 6.03848267 196.000000
-44.22414780 10.24732590 5.44842529 196.000000
-44.37721252 10.39758968 4.46691895 196.000000
-43.88572693 10.37050247 7.12469482 195.000000
-44.27777100 10.60130119 4.76608276 196.000000
-44.16248322 10.67295551 5.25833130 196.000000
-44.17902756 10.79395866 4.96307373 196.000000
-44.70470428 11.06600761 2.02041626 196.000000
-46.74699020 11.78346157 -9.37582397 196.000000
-46.86870956 11.94004726 -10.26068115 196.000000
-47.28613281 12.18558693 -12.61361694 196.000000
-46.96183014 12.20754814 -11.04220581 196.000000
-46.52438354 12.18270874 -8.78149414 196.000000
-47.69549561 12.66173458 -15.46316528 196.000000
-46.57046509 12.43536663 -9.47045898 196.000000
-46.78431320 12.60863113 -10.64285278 196.000000
-46.88684082 12.75998688 -11.42950439 196.000000
-46.81139374 12.85582352 -11.23367310 196.000000
-46.93579102 13.00178337 -11.91482544 196.000000
-46.64693451 13.02974701 -10.53994751 196.000000
-46.44698334 13.08499718 -9.65643311 196.000000
-46.34645462 13.16985226 -9.16018677 196.000000
-46.83830261 13.44595146 -12.10836792 196.000000
-46.70269012 13.50984573 -11.51794434 196.000000
-46.30746078 13.50032997 -9.55368042 196.000000
-46.56786346 13.70303345 -11.22460938 196.000000
-46.93885040 13.92962933 -13.28131104 196.000000
-46.45495605 13.88927650 -10.82577515 196.000000
-46.27220535 13.94678783 -10.04055786 196.000000
-46.30625916 14.06245422 -10.23059082 196.000000
-46.58316803 14.27214622 -11.99978638 196.000000
-46.57682800 14.38782215 -12.19702148 196.000000
-46.07575607 14.33701515 -9.64331055 196.000000
-46.36340332 14.53983307 -11.41094971 196.000000
-45.85560226 14.48256779 -8.65521240 196.000000
-45.77848434 14.57261467 -8.45947266 196.000000
-45.94207764 14.73356342 -9.53942871 196.000000
-46.06929779 14.89124870 -10.32061768 196.000000
-45.81547546 14.91999435 -9.14245605 196.000000
-46.16059875 15.15567017 -11.30471802 196.000000
-46.16475296 15.26225662 -11.50039673 196.000000
-45.62228394 15.18621159 -8.54830933 196.000000
-45.54445648 15.27425385 -8.35266113 196.000000
-46.25773239 15.64121056 -12.57809448 196.000000
-45.90980530 15.62284374 -10.80889893 196.000000
-45.56107330 15.61153412 -8.93756104 196.000000
-45.67596436 15.76757717 -9.82266235 196.000000
-45.76712799 15.90411854 -10.50967407 196.000000
-45.10254669 15.77679920 -6.86999512 196.000000
-45.62052155 16.07825851 -10.01470947 196.000000
-46.24289322 16.41919708 -13.74893188 196.000000
-45.70234299 16.32626343 -10.89920044 196.000000
-45.26615906 16.27799034 -8.53671265 196.000000
-45.79998016 16.58832169 -11.77972412 196.000000
-45.39988708 16.54395866 -9.71594238 196.000000
-45.42558670 16.66751862 -10.10995483 196.000000
-45.08404541 16.65435791 -8.44073486 196.000000
-45.29494095 16.84311867 -9.71340942 196.000000
-46.01314545 17.21493530 -13.93731689 196.000000
-45.75850677 17.23366356 -12.75939941 196.000000
-45.83547974 17.37699318 -13.44815063 196.000000
-44.84178925 17.11011124 -7.94195557 196.000000
-44.91324997 17.23871040 -8.53085327 196.000000
-45.51288223 17.58085442 -12.16699219 196.000000
-44.62466049 17.34922409 -7.25036621 196.000000
-44.74796677 17.49755669 -8.13403320 196.000000
-45.08546066 17.74036407 -10.29647827 196.000000
-44.99832916 17.81506348 -9.89913940 196.000000
-44.91782379 17.89603233 -9.70376587 196.000000
-44.71004486 17.91555405 -8.72088623 196.000000
-45.01155853 18.14585304 -10.68688965 196.000000
-44.73309326 18.14392281 -9.20892334 196.000000
-44.88972473 18.30625916 -10.28918457 196.000000
-44.65262985 18.32388878 -9.20968628 196.000000
-44.43299866 18.34770393 -8.22839355 196.000000
-45.06222153 18.71067047 -12.06112671 196.000000
