-1080.16369629 -7667.87109375 551.13519287 196.000000
-1063.15869141 -7634.06396484 665.52429199 196.000000
-1064.49633789 -7696.97363281 423.23605347 196.000000
-1047.22607422 -7659.17529297 557.27532959 196.000000
-1017.49395752 -7561.99560547 913.17132568 196.000000
-1031.32263184 -7688.33154297 429.39450073 196.000000
-1011.07263184 -7635.36962891 621.42028809 196.000000
-1004.69323730 -7654.92187500 532.99554443 196.000000
-984.25158691 -7603.49707031 715.06646729 196.000000
-978.30358887 -7625.60107422 616.98913574 196.000000
-984.93823242 -7709.55712891 287.36569214 196.000000
-968.64581299 -7686.31396484 373.53512573 196.000000
-947.29608154 -7629.90234375 574.96331787 196.000000
-937.04211426 -7627.75146484 573.83111572 196.000000
-920.65344238 -7596.71875000 678.66815186 196.000000
-899.66827393 -7548.23925781 861.49896240 196.000000
-917.34088135 -7696.92187500 280.31002808 196.000000
-881.70751953 -7560.71630859 791.32379150 196.000000
-876.92169189 -7598.31738281 645.64202881 196.000000
-878.93395996 -7666.00537109 373.64498901 196.000000
-856.92565918 -7604.72363281 594.48846436 196.000000
-861.98791504 -7693.95263672 255.84715271 196.000000
-835.86828613 -7609.94873047 563.68707275 196.000000
-819.54882813 -7579.07177734 668.59735107 196.000000
-809.66638184 -7587.42187500 639.21502686 196.000000
-795.20080566 -7566.68603516 705.48089600 196.000000
-792.48352051 -7611.63818359 520.46197510 196.000000
-776.09973145 -7576.81640625 645.04693604 196.000000
-776.79052734 -7641.96044922 382.69650269 196.000000
-749.39074707 -7548.08544922 729.30603027 196.000000
-742.87255859 -7576.68750000 622.61956787 196.000000
-737.57946777 -7609.03125000 485.93136597 196.000000
-728.70782471 -7621.18750000 426.57769775 196.000000
-712.00317383 -7587.95654297 541.23529053 196.000000
-709.08703613 -7639.28759766 347.54940796 196.000000
-684.70556641 -7560.69921875 636.23651123 196.000000
-676.57202148 -7577.94628906 557.56530762 196.000000
-654.06518555 -7513.33593750 808.60894775 196.000000
-661.78320313 -7626.37597656 362.56100464 196.000000
-655.51525879 -7656.22656250 235.55296326 196.000000
-626.87512207 -7557.91162109 612.01470947 196.000000
-612.38201904 -7533.41113281 698.04071045 196.000000
-606.85150146 -7568.34326172 551.71197510 196.000000
-586.64855957 -7520.47802734 734.83581543 196.000000
-562.14923096 -7437.10937500 1042.98706055 196.000000
-572.09747314 -7566.22753906 539.19372559 196.000000
-558.35443115 -7550.84375000 586.27313232 196.000000
-536.81677246 -7481.15185547 846.41107178 196.000000
-524.26782227 -7481.19531250 845.84954834 196.000000
-524.52545166 -7556.42431641 544.81195068 196.000000
-503.45846558 -7493.32568359 775.66833496 196.000000
-495.93505859 -7514.24316406 687.69525146 196.000000
-488.25244141 -7539.17529297 580.07507324 196.000000
-468.84439087 -7490.02685547 773.27575684 196.000000
-456.23532104 -7482.31494141 791.40319824 196.000000
-453.97384644 -7544.96630859 538.71453857 196.000000
-451.41671753 -7615.46630859 267.37362671 196.000000
-436.78976440 -7595.20263672 333.86837769 196.000000
-408.59741211 -7475.52197266 787.58239746 196.000000
-410.82189941 -7581.19287109 380.83187866 196.000000
-394.80606079 -7550.93994141 486.04122925 196.000000
-371.23815918 -7461.47265625 823.72741699 196.000000
-356.97048950 -7451.66259766 861.95062256 196.000000
-355.33563232 -7524.39160156 570.57489014 196.000000
-350.41235352 -7574.51269531 366.25973511 196.000000
-337.02420044 -7557.89794922 423.44049072 196.000000
-313.47003174 -7480.41259766 722.89422607 196.000000
-313.69848633 -7570.69287109 363.79696655 196.000000
-296.11004639 -7528.03857422 517.45300293 196.000000
-291.30914307 -7576.67578125 323.11398315 196.000000
-274.41125488 -7539.07128906 457.43707275 196.000000
-251.34440613 -7447.35791016 804.92547607 196.000000
-236.96774292 -7437.70019531 843.21887207 196.000000
-233.60610962 -7505.42041016 571.20056152 196.000000
-215.92630005 -7460.38916016 734.59466553 196.000000
-210.77296448 -7519.41748047 511.94763184 196.000000
-189.13098145 -7441.84863281 801.15045166 196.000000
-184.11854553 -7499.56103516 567.84051514 196.000000
-173.48902893 -7505.67431641 538.02789307 196.000000
-157.75711060 -7486.10791016 615.08172607 196.000000
-140.86543274 -7446.19238281 759.17663574 196.000000
-134.57896423 -7506.77099609 526.58386230 196.000000
-115.12509155 -7437.83056641 787.10931396 196.000000
-119.59103394 -7583.17578125 215.10008240 196.000000
-99.88365936 -7511.76953125 485.32409668 196.000000
-74.59992981 -7407.21630859 891.47027588 196.000000
-69.88857269 -7475.00146484 619.47625732 196.000000
-52.34968185 -7427.70458984 792.67272949 196.000000
-47.48506165 -7488.95947266 549.99383545 195.000000
-36.97972870 -7506.71337891 471.56677246 196.000000
-23.48170471 -7496.97119141 499.60934448 196.000000
-5.66600990 -7457.60498047 654.19305420 196.000000
-2.97376442 -7543.87109375 314.73080444 196.000000
18.55895042 -7456.68457031 642.84967041 196.000000
37.62173843 -7392.03662109 883.87145996 196.000000
53.04066086 -7366.20019531 990.37780762 196.000000
54.82078934 -7474.00488281 563.53143311 196.000000
67.63488007 -7471.85937500 562.58538818 196.000000
91.25440216 -7370.16503906 959.23767090 196.000000
97.36299133 -7428.98388672 726.27252197 196.000000
107.13349915 -7459.35400391 599.50866699 196.000000
120.01137543 -7461.09912109 599.58190918 196.000000
125.37412262 -7541.43603516 279.22055054 196.000000
148.33489990 -7442.34375000 666.25054932 196.000000
151.48994446 -7550.16796875 239.40733337 196.000000
176.82946777 -7408.30810547 780.64263916 196.000000
190.12664795 -7392.27880859 838.12554932 196.000000
207.73464966 -7335.37451172 1050.24707031 196.000000
216.54209900 -7371.78662109 904.43725586 196.000000
226.07005310 -7425.07910156 700.98571777 196.000000
233.81497192 -7487.99072266 448.41915894 196.000000
249.15020752 -7458.58447266 554.07098389 196.000000
253.63977051 -7554.88671875 175.91551208 196.000000
277.72808838 -7428.60937500 669.57391357 196.000000
288.75253296 -7454.13427734 562.24969482 196.000000
300.80426025 -7467.19287109 503.34167480 196.000000
309.93841553 -7508.64843750 338.20492554 196.000000
331.05072021 -7414.89306641 706.05163574 196.000000
338.72711182 -7490.32958984 405.10556030 195.000000
354.40399170 -7442.06103516 588.55584717 196.000000
358.84487915 -7585.22998047 36.58752060 195.000000
375.67816162 -7533.52441406 229.46470642 88.000000
393.68270874 -7479.76025391 442.44381714 83.000000
400.60409546 -7563.67285156 112.73497772 81.000000
411.09820557 -7609.22802734 -71.99706268 69.000000
423.09063721 -7618.36328125 -111.21825409 67.000000
440.36187744 -7556.77197266 120.44066620 65.000000
444.68685913 -7709.48046875 -480.67013550 83.000000
458.17773438 -7712.68701172 -500.77511597 80.000000
476.39688110 -7637.62744141 -200.29600525 66.000000
487.06304932 -7690.69775391 -414.05328369 60.000000
502.92193604 -7651.60693359 -269.50375366 73.000000
508.01962280 -7795.30810547 -831.61010742 86.000000
522.36920166 -7809.04003906 -879.98040771 87.000000
537.03790283 -7794.87988281 -832.25091553 84.000000
551.08013916 -7793.18847656 -832.93450928 80.000000
564.30047607 -7812.91748047 -900.37835693 78.000000
579.21978760 -7793.82128906 -833.26409912 77.000000
587.22253418 -7905.18896484 -1269.45483398 82.000000
606.37359619 -7840.85302734 -1017.81921387 74.000000
615.10089111 -7944.77343750 -1424.94799805 70.000000
636.36572266 -7776.34716797 -776.72418213 26.000000
-136.70161438 -3547.74658203 -1367.07141113 32.000000
-136.84310913 -3482.62963867 -931.66497803 94.000000
-152.74256897 -3496.57080078 -1040.32885742 93.000000
-171.93212891 -3527.08374023 -1257.68115234 88.000000
-188.26585388 -3546.49267578 -1375.60717773 87.000000
-188.98469543 -3483.39892578 -980.34362793 87.000000
-189.13768005 -3418.83398438 -575.19525146 90.000000
-202.56446838 -3426.20385742 -634.31695557 83.000000
-222.13661194 -3456.53710938 -831.42388916 82.000000
-238.08851624 -3470.35327148 -940.07867432 84.000000
-232.28173828 -3380.19116211 -366.95553589 90.000000
-263.17486572 -3470.34106445 -969.51898193 88.000000
-270.12530518 -3440.33447266 -771.38970947 72.000000
-268.55996704 -3372.78393555 -346.47824097 71.000000
-277.53814697 -3354.93432617 -247.63487244 76.000000
-288.10272217 -3348.51733398 -197.59519958 72.000000
-302.94326782 -3357.73168945 -276.59909058 85.000000
-306.69766235 -3317.30078125 -29.54406548 68.000000
-307.73229980 -3270.40600586 267.04098511 61.000000
-311.82723999 -3233.01904297 494.33590698 62.000000
-335.96981812 -3282.59545898 168.78965759 85.000000
-345.68215942 -3274.75903320 208.48081970 90.000000
-355.49990845 -3262.87670898 267.80697632 93.000000
-367.53558350 -3259.82202148 288.07980347 196.000000
-354.74481201 -3153.38061523 969.86694336 196.000000
-401.18612671 -3300.05712891 -8.11157131 196.000000
-399.30300903 -3240.13232422 367.38888550 196.000000
-404.38262939 -3261.12475586 229.06492615 196.000000
-409.57025146 -3184.15063477 723.75787354 196.000000
-447.20272827 -3286.09545898 32.19909286 196.000000
-429.43402100 -3164.79467773 812.78070068 196.000000
-442.58285522 -3167.62329102 793.53021240 196.000000
-472.38183594 -3236.49780273 319.33895874 196.000000
-470.18960571 -3183.65161133 655.43511963 196.000000
-482.11776733 -3182.14233398 645.60845947 196.000000
-504.58602905 -3220.80004883 389.24557495 196.000000
-502.02490234 -3167.96362305 725.33874512 196.000000
-520.97802734 -3193.31347656 537.67388916 196.000000
-534.09484863 -3196.03393555 518.43255615 196.000000
-542.35308838 -3185.03344727 577.88690186 196.000000
-542.91265869 -3141.63549805 844.69293213 196.000000
-563.17999268 -3171.37817383 627.39556885 196.000000
-570.47863770 -3153.14941406 746.46600342 196.000000
-595.80804443 -3204.76757813 390.97897339 196.000000
-588.99078369 -3136.01733398 825.74157715 196.000000
-612.33038330 -3175.89916992 559.50921631 196.000000
-613.98571777 -3138.46069336 786.79498291 196.000000
-635.82611084 -3176.54980469 520.23004150 196.000000
-647.53643799 -3174.83740234 510.41256714 196.000000
-652.86608887 -3154.82055664 629.14117432 196.000000
-661.92559814 -3144.16723633 678.59802246 196.000000
-679.11529541 -3161.56298828 560.56823730 196.000000
-683.32025146 -3134.53271484 718.69500732 196.000000
-700.15289307 -3150.59350586 590.32586670 196.000000
-719.70013428 -3179.38427734 403.25924683 196.000000
-733.09173584 -3183.50683594 353.92453003 196.000000
-729.48498535 -3131.21582031 680.00183105 196.000000
-740.99584961 -3133.22436523 670.76110840 196.000000
-751.57208252 -3128.42260742 680.70062256 196.000000
-759.38757324 -3114.71508789 749.91754150 196.000000
-783.77673340 -3158.37451172 443.85064697 196.000000
-806.20819092 -3191.86450195 217.16001892 195.000000
-796.86749268 -3123.29614258 651.89202881 196.000000
-804.99542236 -3111.03173828 711.22741699 196.000000
-824.81286621 -3139.58959961 524.16687012 196.000000
-818.74188232 -3082.91333008 879.86755371 196.000000
-846.15435791 -3131.25854492 534.17352295 196.000000
-851.95996094 -3115.58251953 623.26354980 196.000000
-863.26837158 -3113.61108398 613.45208740 196.000000
-884.51257324 -3142.45214844 416.40011597 196.000000
-892.44024658 -3130.10327148 475.73541260 196.000000
-891.25390625 -3093.74291992 703.12194824 196.000000
-904.42675781 -3097.62451172 653.79632568 196.000000
-917.39288330 -3101.29809570 624.67956543 196.000000
-926.10552979 -3091.87963867 664.25775146 196.000000
-956.44708252 -3149.80834961 259.42684937 196.000000
-953.43975830 -3106.30297852 546.42028809 196.000000
-972.15417480 -3126.28295898 388.43075562 196.000000
-965.35870361 -3075.22192383 714.59655762 196.000000
-983.04937744 -3092.22851563 576.36413574 196.000000
-995.41784668 -3094.32495117 557.12585449 196.000000
-1002.37908936 -3080.42333984 626.33660889 196.000000
-1018.87078857 -3096.97216797 498.10787964 196.000000
-1039.79357910 -3122.67944336 300.60726929 196.000000
-1030.23559570 -3063.07885742 696.24938965 196.000000
-1035.73461914 -3048.77221680 775.45159912 196.000000
-1066.69018555 -3102.28515625 390.27706909 196.000000
-1072.92749023 -3086.86010742 469.36334229 196.000000
-1080.38684082 -3075.65576172 539.02581787 196.000000
-1086.82958984 -3064.24365234 598.47406006 196.000000
-1106.85827637 -3086.85888672 420.73669434 195.000000
-1102.11743164 -3042.16381836 697.37847900 196.000000
-1131.59887695 -3090.87597656 362.05136108 196.000000
-1134.12500000 -3069.19409180 490.64019775 196.000000
-1132.91918945 -3034.74487305 698.13226318 196.000000
-1138.37353516 -3019.10717773 797.41815186 196.000000
-1174.90258789 -3087.93530273 313.60470581 196.000000
-1181.28894043 -3073.89208984 382.80636597 196.000000
-1164.75061035 -3000.08715820 856.98840332 196.000000
-1184.53735352 -3022.32299805 699.45672607 196.000000
-1207.99426270 -3056.00146484 452.70074463 196.000000
-1221.53430176 -3060.86816406 393.50277710 196.000000
-1220.17041016 -3030.44140625 581.34759521 196.000000
-1224.12878418 -3011.84545898 700.38446045 196.000000
-1252.47534180 -3054.48803711 384.37496948 196.000000
-1265.42749023 -3057.83105469 335.04635620 196.000000
-1247.05761719 -2985.29931641 809.32611084 196.000000
-1279.74829102 -3039.28735352 434.50622559 196.000000
-1262.94445801 -2968.59521484 888.90679932 196.000000
-1296.79321289 -3024.12280273 484.00573730 196.000000
-1290.28149414 -2979.58276367 760.62005615 196.000000
-1301.91235352 -2983.79760742 731.61004639 196.000000
-1317.07702637 -2992.86010742 642.77337646 196.000000
-1334.53625488 -3010.23876953 504.66915894 196.000000
-1358.83203125 -3042.23901367 278.00900269 196.000000
-1340.52319336 -2970.23364258 742.27288818 196.000000
-1377.35986328 -3031.24072266 297.87289429 196.000000
-1359.89624023 -2964.74780273 732.62322998 196.000000
-1369.69140625 -2961.98413086 742.99615479 196.000000
-1376.31823730 -2950.72338867 792.43157959 196.000000
-1421.35522461 -3032.86206055 209.88462830 196.000000
-1416.37927246 -2994.15283203 446.97564697 196.000000
-1417.51110840 -2971.16381836 595.62066650 196.000000
-1424.03576660 -2959.85815430 645.05310059 196.000000
-1436.66601563 -2965.49414063 585.96490479 196.000000
-1449.36120605 -2968.55444336 536.63629150 196.000000
-1467.13269043 -2984.38354492 418.60958862 196.000000
-1480.47387695 -2988.83276367 359.40243530 196.000000
-1454.67663574 -2906.80053711 902.76477051 196.000000
-1478.64477539 -2935.66015625 675.65911865 196.000000
-1509.10449219 -2980.09790039 360.11044312 196.000000
-1517.28588867 -2975.57250977 370.15072632 196.000000
-1536.35437012 -2992.83203125 222.05503845 196.000000
-1535.60205078 -2966.96606445 390.43881226 196.000000
-1553.40124512 -2981.32153320 262.09713745 196.000000
-1533.69470215 -2915.24047852 696.80169678 196.000000
-1568.31408691 -2966.74853516 311.68209839 196.000000
-1555.55444336 -2915.17163086 657.82464600 196.000000
-1562.85278320 -2909.17529297 677.73431396 196.000000
-1579.96362305 -2922.02783203 559.26812744 196.000000
-1590.52282715 -2920.58276367 539.55682373 196.000000
-1593.80773926 -2904.72656250 638.79388428 196.000000
-1600.34399414 -2897.27050781 668.57904053 196.000000
-1620.13549805 -2915.73510742 510.60787964 196.000000
-1620.63977051 -2895.44750977 629.26629639 196.000000
-1623.04711914 -2878.15820313 738.37585449 196.000000
-1644.20629883 -2899.40502930 560.65057373 196.000000
-1667.44555664 -2924.86425781 353.29891968 196.000000
-1669.11108398 -2904.84545898 461.96588135 196.000000
-1675.46752930 -2898.61499023 502.05685425 196.000000
-1671.55688477 -2867.25854492 689.72467041 196.000000
-1695.54565430 -2894.03564453 472.49752808 196.000000
-1692.15930176 -2865.39135742 660.59869385 196.000000
-1710.07055664 -2881.92700195 522.49139404 196.000000
-1711.41296387 -2861.91430664 631.15228271 196.000000
-1710.67077637 -2840.22436523 759.67401123 196.000000
-1744.43664551 -2887.94091797 414.50192261 196.000000
-1754.71264648 -2886.27270508 394.78146362 196.000000
-1765.67272949 -2886.00122070 365.17941284 196.000000
-1785.80090332 -2906.61108398 197.44261169 196.000000
-1772.81567383 -2859.66162109 513.90985107 196.000000
-1773.82958984 -2839.64013672 622.56158447 196.000000
-1781.93176270 -2836.26416016 622.70202637 196.000000
-1774.94873047 -2802.04736328 850.28070068 196.000000
-1806.34106445 -2842.54150391 534.30169678 196.000000
-1808.58972168 -2825.33105469 623.19635010 196.000000
-1818.03686523 -2824.72729492 603.58270264 196.000000
-1830.23657227 -2827.17114258 554.22662354 196.000000
-1820.73950195 -2788.79589844 811.42272949 196.000000
-1867.52941895 -2858.52343750 288.07064819 196.000000
-1858.87182617 -2822.82153320 515.32281494 196.000000
-1859.31201172 -2804.08349609 634.26507568 196.000000
-1885.28100586 -2833.04809570 397.28390503 196.000000
-1883.69519043 -2811.36987305 525.78424072 196.000000
-1860.66394043 -2746.63134766 950.40893555 196.000000
-1892.52075195 -2786.69799805 634.42987061 196.000000
-1911.83935547 -2804.25927734 496.62164307 196.000000
-1914.47082520 -2790.96948242 565.86608887 196.000000
-1918.38842773 -2777.92089844 625.12200928 196.000000
-1913.20300293 -2749.43945313 813.17132568 196.000000
-1929.81689453 -2762.62255859 694.79675293 196.000000
-1951.52709961 -2782.96313477 517.05926514 196.000000
-1944.07702637 -2749.04223633 724.42926025 196.000000
-1974.83288574 -2789.84594727 428.73834229 196.000000
-1980.07019043 -2779.53051758 468.23425293 196.000000
-1970.92138672 -2742.85424805 695.34906006 196.000000
-1989.66870117 -2757.51342773 557.10443115 196.000000
-2012.25732422 -2782.91650391 370.03170776 196.000000
-1999.11303711 -2739.33471680 646.50872803 196.000000
-2033.90930176 -2782.98022461 300.89718628 196.000000
-2029.62390137 -2757.32641602 469.18023682 196.000000
-2030.22082520 -2741.23339844 558.15728760 196.000000
-2029.02612305 -2719.83935547 676.64178467 196.000000
-2053.97656250 -2745.37988281 459.39636230 196.000000
-2057.15209961 -2733.55249023 528.92761230 196.000000
-2052.15405273 -2707.81567383 687.01776123 196.000000
-2046.08215332 -2678.18237305 864.73999023 196.000000
-2057.27392578 -2681.39624023 815.46929932 196.000000
-2071.36254883 -2687.55200195 736.45935059 196.000000
-2093.85742188 -2710.08789063 559.13079834 196.000000
-2092.28491211 -2688.71264648 677.59704590 196.000000
-2148.29541016 -2770.08374023 65.49987030 196.000000
-2116.54394531 -2697.84619141 569.47625732 196.000000
-2112.45678711 -2672.36499023 717.56585693 196.000000
-2137.05859375 -2698.75756836 500.43023682 196.000000
-2155.68627930 -2714.28002930 372.46090698 196.000000
-2137.94311523 -2665.53247070 688.40026855 196.000000
-2157.56860352 -2681.09130859 540.26483154 196.000000
-2159.08325195 -2667.73974609 609.47259521 196.000000
-2173.67480469 -2676.35205078 530.86541748 196.000000
-2176.46362305 -2663.17944336 590.07562256 196.000000
-2188.06811523 -2665.00292969 540.67376709 196.000000
-2220.93139648 -2704.75708008 224.78941345 196.000000
-2208.84741211 -2668.35644531 472.01535034 196.000000
-2196.90332031 -2630.68530273 708.95379639 196.000000
-2210.33666992 -2637.72583008 630.04144287 196.000000
-2222.67651367 -2640.84399414 570.75799561 196.000000
-2276.66601563 -2713.12329102 7.90710354 196.000000
-2247.07324219 -2648.31933594 462.47555542 196.000000
-2257.23754883 -2649.85131836 423.05294800 196.000000
-2254.76489258 -2628.51684570 541.49163818 196.000000
-2262.64672852 -2626.09179688 541.85485840 196.000000
-2306.60986328 -2683.03662109 97.60741425 196.000000
-2297.43823242 -2650.86132813 295.03475952 196.000000
-2294.80566406 -2629.52587891 413.46432495 196.000000
-2341.99023438 -2693.01904297 -59.99145126 196.000000
-2292.68432617 -2596.14599609 611.35858154 196.000000
-2290.69262695 -2576.20581055 719.91571045 196.000000
-2336.84521484 -2635.65502930 266.07968140 196.000000
-2318.89526367 -2590.11987305 562.22528076 196.000000
-2334.75561523 -2600.93920898 453.67428589 196.000000
-2344.92187500 -2602.44799805 424.39880371 196.000000
-2359.11157227 -2610.53588867 335.58956909 196.000000
-2356.90795898 -2590.57373047 444.13449097 196.000000
-2369.88818359 -2594.74853516 374.95419312 196.000000
-2382.01953125 -2597.55834961 315.64328003 196.000000
-2366.09472656 -2560.05615234 582.68426514 196.000000
-2354.30029297 -2525.43359375 799.83209229 196.000000
-2338.99023438 -2485.51733398 1056.47265625 196.000000
-2381.75048828 -2536.39428711 641.70837402 196.000000
-2395.49389648 -2545.67431641 563.16522217 196.000000
-2415.23974609 -2560.41967773 414.98718262 196.000000
-2410.91186523 -2537.83862305 543.26165771 196.000000
-2429.31616211 -2552.40063477 405.07199097 196.000000
-2431.44433594 -2541.78588867 464.63317871 196.000000
-2416.58056641 -2503.28491211 711.38610840 196.000000
-2437.56274414 -2521.78247070 543.56988525 196.000000
-2451.23413086 -2527.09716797 464.49273682 196.000000
-2447.11181641 -2507.20019531 593.16101074 196.000000
-2477.32714844 -2537.64843750 326.48922729 196.000000
-2476.54345703 -2522.92651367 405.49923706 196.000000
-2517.82324219 -2571.80908203 20.74584770 196.000000
-2457.83203125 -2465.99609375 771.03265381 196.000000
-2470.51855469 -2469.92431641 701.82183838 196.000000
-2486.26196289 -2480.30493164 593.23425293 196.000000
-2504.72167969 -2494.72631836 465.17330933 196.000000
-2495.32519531 -2465.64819336 642.79479980 196.000000
-2505.75170898 -2468.07397461 593.44177246 196.000000
-2525.49682617 -2482.41943359 445.23620605 196.000000
-2521.74707031 -2463.89624023 564.00445557 195.000000
-2542.38574219 -2479.50463867 405.92037964 91.000000
-2571.67504883 -2494.76391602 218.21897888 14.000000
-2599.10107422 -2522.07592773 -8.58764458 5.000000
-2898.68359375 -252.88565063 -1465.52124023 196.000000
-2915.36572266 -264.74221802 -1704.81555176 196.000000
-2872.01074219 -229.66506958 -1308.66381836 196.000000
-2892.76440430 -245.69551086 -1587.55175781 196.000000
-2908.32202148 -256.73632813 -1816.93408203 196.000000
-2900.06274414 -252.29121399 -1797.92785645 196.000000
-2833.53857422 -199.21025085 -1153.49719238 196.000000
-2860.56811523 -220.24803162 -1501.91638184 196.000000
-2850.84106445 -211.63737488 -1463.20190430 196.000000
-2815.65893555 -186.23649597 -1156.20715332 196.000000
-2824.88378906 -193.43382263 -1315.96667480 196.000000
-2815.62866211 -188.36106873 -1287.01770020 196.000000
-2871.34765625 -231.07331848 -1953.41479492 196.000000
-2825.05639648 -194.91313171 -1517.31860352 196.000000
-2791.79150391 -171.13793945 -1230.15734863 196.000000
-2808.58886719 -183.48838806 -1479.45849609 196.000000
-2827.57226563 -198.49098206 -1748.49829102 196.000000
-2804.81567383 -179.92320251 -1570.73962402 196.000000
-2770.68994141 -155.58865356 -1273.61743164 196.000000
-2795.44091797 -174.28407288 -1612.33813477 196.000000
-2779.02172852 -161.42535400 -1433.55395508 196.000000
-2796.83471680 -174.98025513 -1763.23547363 196.000000
-2765.00366211 -149.44502258 -1486.12353516 196.000000
-2781.73022461 -162.86074829 -1735.33935547 196.000000
-2742.69628906 -131.74328613 -1378.74743652 196.000000
-2746.66162109 -137.44328308 -1498.80969238 196.000000
-2749.20483398 -138.93827820 -1599.16979980 196.000000
-2726.05371094 -121.22826385 -1411.30053711 196.000000
-2724.48437500 -122.68764496 -1471.76806641 196.000000
-2727.80639648 -124.88388824 -1582.06774902 196.000000
-2697.47851563 -103.85041809 -1324.62145996 196.000000
-2746.80444336 -143.10816956 -1941.47937012 196.000000
-2684.77758789 -94.10322571 -1326.51354980 196.000000
-2677.27978516 -91.93797302 -1317.30639648 196.000000
-2683.08081055 -96.24073029 -1457.41870117 196.000000
-2706.56591797 -114.46474457 -1796.26452637 196.000000
-2670.54785156 -85.96448517 -1469.39379883 196.000000
-2643.47387695 -68.52286530 -1241.58312988 196.000000
-2637.61840820 -63.78008270 -1252.53588867 196.000000
-2639.66674805 -65.28217316 -1352.91430664 196.000000
-2663.26464844 -84.63477325 -1691.65942383 195.000000
-2610.71411133 -43.23273087 -1175.93676758 196.000000
-2634.56762695 -61.97573853 -1524.76794434 195.000000
-2603.56005859 -40.72730255 -1257.31494141 196.000000
-2636.46337891 -67.54721832 -1705.40771484 196.000000
-2604.19677734 -42.19098282 -1418.21887207 196.000000
-2607.67016602 -45.02365494 -1538.49487305 196.000000
-2578.10034180 -25.85253525 -1280.83178711 196.000000
-2562.43920898 -13.65445709 -1182.45532227 196.000000
-2564.95214844 -15.82598686 -1292.80078125 196.000000
-2541.87817383 -0.98398012 -1114.75817871 196.000000
-2613.25415039 -61.71405411 -2019.98266602 196.000000
-2549.28222656 -11.38556957 -1364.99926758 196.000000
-2550.92114258 -14.19357681 -1545.81591797 196.000000
-2552.25512695 -15.63154507 -1646.23706055 196.000000
-2553.87695313 -20.54115105 -1756.46362305 196.000000
-321.22567749 -12979.57910156 -725.75677490 81.000000
-360.74914551 -12975.01074219 -725.95513916 89.000000
-362.45730591 -12858.71582031 -427.52682495 87.000000
-385.99215698 -12962.47949219 -697.59820557 88.000000
-394.72949219 -12913.08007813 -576.85241699 87.000000
-411.36709595 -12941.67871094 -650.94909668 82.000000
-404.76995850 -12743.10937500 -137.88755798 74.000000
-415.20346069 -12715.17480469 -73.13842010 75.000000
-436.16433716 -12790.19921875 -268.56991577 83.000000
-433.78652954 -12641.72070313 113.83971405 85.000000
-451.39227295 -12688.83105469 -17.40112114 85.000000
-457.36401367 -12617.97167969 159.33836365 89.000000
-480.51498413 -12730.40332031 -139.54771423 87.000000
-476.10903931 -12551.59667969 327.63363647 84.000000
-494.44824219 -12605.78320313 177.71604919 88.000000
-507.36807251 -12606.35546875 167.78868103 87.000000
-506.99124146 -12478.34277344 493.85681152 90.000000
-522.97479248 -12519.22753906 381.61923218 195.000000
-527.53588867 -12441.22656250 577.02630615 196.000000
-524.02648926 -12292.08496094 969.89440918 196.000000
-546.49182129 -12385.45117188 717.29730225 196.000000
-548.40264893 -12286.04687500 968.70111084 196.000000
-558.33361816 -12257.22460938 1043.86889648 196.000000
-582.79779053 -12376.53125000 726.28167725 196.000000
-585.58245850 -12287.82226563 949.68255615 196.000000
-587.09045410 -12184.04589844 1220.84948730 196.000000
-620.07904053 -12378.19042969 707.24481201 195.000000
-638.67260742 -12427.78125000 577.06292725 195.000000
-656.05517578 -12470.98730469 455.10250854 195.000000
-656.02673340 -12360.84375000 734.49700928 196.000000
-656.17803955 -12262.46289063 986.24566650 196.000000
-676.77093506 -12334.15039063 789.60876465 196.000000
-685.88061523 -12301.65234375 874.09057617 196.000000
-692.39288330 -12252.12792969 994.80895996 196.000000
-711.41516113 -12309.48925781 835.49194336 196.000000
-719.08752441 -12278.80957031 909.89367676 196.000000
-720.30981445 -12186.53808594 1142.62377930 196.000000
-752.21862793 -12358.83300781 684.94567871 196.000000
-779.60882568 -12479.38964844 368.02365112 196.000000
-767.26489258 -12276.70703125 890.11529541 196.000000
-779.47918701 -12276.97363281 880.13610840 196.000000
-789.95819092 -12271.16015625 889.18151855 196.000000
-798.99011230 -12242.12890625 964.30657959 196.000000
-823.13775635 -12338.42089844 702.27044678 196.000000
-825.86206055 -12259.55468750 908.07800293 196.000000
-841.12561035 -12284.65136719 832.73620605 196.000000
-857.38940430 -12325.00781250 720.41009521 196.000000
-858.02966309 -12231.90917969 963.55578613 196.000000
-890.33557129 -12396.68652344 524.49029541 196.000000
-884.48315430 -12258.15917969 878.56140137 196.000000
-905.68304443 -12325.01855469 701.60516357 196.000000
-912.59509277 -12286.02441406 794.28094482 196.000000
-932.22583008 -12351.14160156 616.58929443 196.000000
-937.64916992 -12301.46875000 737.26800537 196.000000
-954.85375977 -12340.59863281 624.54827881 196.000000
-961.59173584 -12301.57324219 717.22106934 196.000000
-992.40435791 -12448.23828125 324.76803589 196.000000
-970.48815918 -12195.39355469 988.03405762 196.000000
-986.20092773 -12223.81347656 903.31420898 195.000000
-1002.10375977 -12260.37597656 800.27770996 196.000000
-1004.61926270 -12192.95214844 967.63909912 196.000000
-1029.04516602 -12280.81445313 734.60992432 196.000000
-1027.15441895 -12189.61718750 967.67572021 196.000000
-1056.15515137 -12309.35449219 650.61334229 196.000000
-1089.52807617 -12461.75195313 239.08384705 196.000000
-1060.57751465 -12174.45605469 985.30871582 196.000000
-1085.42138672 -12270.35156250 733.94158936 196.000000
-1093.06176758 -12241.88085938 798.58093262 196.000000
-1095.52038574 -12177.97265625 956.58874512 196.000000
-1109.19274902 -12192.02050781 909.17962646 196.000000
-1133.21423340 -12280.71386719 676.46783447 196.000000
-1148.50500488 -12305.33105469 601.03454590 196.000000
-1151.27124023 -12244.94042969 749.69476318 196.000000
-1163.11999512 -12252.91308594 721.30731201 196.000000
-1169.94873047 -12220.84667969 795.26666260 196.000000
-1186.51196289 -12251.67675781 711.56610107 196.000000
-1184.47619629 -12167.60156250 925.95208740 196.000000
-1218.95617676 -12319.49511719 514.33404541 196.000000
-1223.51452637 -12273.23339844 625.63470459 196.000000
-1238.25756836 -12294.16308594 559.50622559 196.000000
-1228.80456543 -12155.17480469 924.02642822 196.000000
-1259.59423828 -12286.77636719 568.77136230 196.000000
-1263.37292480 -12236.96972656 689.40728760 196.000000
-1279.40039063 -12264.10839844 615.01159668 196.000000
-1284.49060059 -12229.52343750 698.65106201 196.000000
-1298.28210449 -12242.49707031 661.60583496 196.000000
-1325.26208496 -12341.02148438 390.00241089 196.000000
-1309.72900391 -12171.11328125 828.14636230 196.000000
-1345.21350098 -12326.38574219 417.90158081 196.000000
-1414.29309082 -12686.03027344 -544.80895996 196.000000
-1449.75317383 -12833.71777344 -947.21374512 196.000000
-1450.35290527 -12770.75488281 -788.88854980 196.000000
-1442.46411133 -12650.22070313 -481.51550293 196.000000
-1479.30151367 -12804.82226563 -902.62445068 196.000000
-1478.16711426 -12730.58398438 -705.82269287 196.000000
-1500.13806152 -12793.42285156 -884.11242676 196.000000
-1505.26391602 -12753.99511719 -791.55572510 196.000000
-1508.55895996 -12704.00097656 -670.97161865 196.000000
-1534.51330566 -12796.09277344 -923.62359619 196.000000
-1546.18542480 -12794.70019531 -923.35815430 196.000000
-1532.14587402 -12642.54296875 -531.91217041 196.000000
-1557.18151855 -12722.84179688 -756.93658447 196.000000
-1563.13684082 -12758.05175781 -850.34478760 196.000000
-1578.10852051 -12714.79589844 -747.81793213 196.000000
-1590.80358887 -12720.38183594 -766.24749756 196.000000
-1603.92932129 -12730.17675781 -804.47991943 196.000000
-1612.03234863 -12716.48632813 -776.94390869 196.000000
-1622.22961426 -12707.95703125 -758.02301025 196.000000
-1621.82958984 -12640.34277344 -590.76226807 196.000000
-1627.33154297 -12612.57714844 -525.86663818 196.000000
-1663.77734375 -12755.89257813 -919.08569336 196.000000
-1665.69848633 -12702.32714844 -789.19061279 196.000000
-1680.58850098 -12726.53222656 -853.97644043 196.000000
-1692.84863281 -12668.58593750 -724.98162842 196.000000
-1712.73315430 -12716.85644531 -866.01861572 196.000000
-1716.76208496 -12682.01269531 -782.45233154 196.000000
-1731.94177246 -12640.87011719 -689.73382568 196.000000
-1752.49768066 -12692.55957031 -840.12445068 196.000000
-1763.39123535 -12696.28027344 -859.34753418 196.000000
-1771.24353027 -12677.07421875 -812.44500732 196.000000
-1774.43713379 -12634.02734375 -710.59265137 196.000000
-1799.58032227 -12714.13476563 -924.91754150 196.000000
-1815.05432129 -12737.64941406 -1000.59509277 196.000000
-1809.00756836 -12645.52246094 -767.94128418 196.000000
-1819.26098633 -12640.28710938 -758.43200684 196.000000
-1834.60412598 -12668.44628906 -843.07556152 196.000000
-1817.06127930 -12516.83007813 -451.58386230 196.000000
-1833.04699707 -12543.80761719 -536.61492920 196.000000
-1871.56469727 -12694.41699219 -948.31536865 196.000000
-1869.01269531 -12623.33984375 -771.72845459 196.000000
-1897.14318848 -12712.48925781 -1014.53234863 196.000000
-1893.79455566 -12637.91406250 -828.60406494 196.000000
-1896.34924316 -12599.51074219 -735.72991943 196.000000
-1925.73999023 -12638.47167969 -858.05053711 196.000000
-1938.72717285 -12598.88964844 -775.50347900 196.000000
-1949.27075195 -12597.70898438 -785.82147217 196.000000
-1967.35815430 -12634.21679688 -888.51013184 196.000000
-1963.40808105 -12564.37304688 -711.54168701 196.000000
-1995.97045898 -12674.83691406 -1020.94116211 196.000000
-1981.53356934 -12547.27734375 -684.38415527 196.000000
-2003.75744629 -12610.02832031 -862.56402588 196.000000
-2014.18261719 -12608.76660156 -872.90637207 196.000000
-2021.62194824 -12539.27636719 -705.59075928 196.000000
-2030.54870605 -12535.70214844 -706.20416260 196.000000
-2043.66845703 -12548.34960938 -753.94586182 196.000000
-2043.29895020 -12494.08300781 -613.67181396 196.000000
-2070.89062500 -12530.95507813 -736.82855225 196.000000
-2096.82348633 -12606.18945313 -952.84118652 196.000000
-2092.00512695 -12531.74511719 -766.91589355 196.000000
-2105.00439453 -12543.58984375 -804.25408936 196.000000
-2095.01391602 -12449.49511719 -561.85296631 196.000000
-2132.57299805 -12580.26269531 -927.46276855 196.000000
-2095.55981445 -12352.90332031 -330.20932007 196.000000
-2048.06298828 -12080.88574219 399.37741089 196.000000
-2039.61206055 -11992.73437500 622.72644043 196.000000
-2023.71850586 -11869.89257813 939.56909180 196.000000
-2054.61840820 -11973.18457031 659.51531982 196.000000
-2048.82739258 -11898.98242188 845.47418213 196.000000
-2059.16333008 -11901.17968750 825.75677490 196.000000
-2047.16577148 -11798.43261719 1096.89624023 196.000000
-2074.58959961 -11885.06250000 853.17077637 196.000000
-2076.67602539 -11849.07226563 936.28845215 196.000000
-2081.68554688 -11826.95996094 982.00982666 195.000000
-2104.60815430 -11891.86523438 804.74237061 196.000000
-2117.08032227 -11904.38574219 756.95184326 196.000000
-2113.74829102 -11844.12207031 905.51751709 196.000000
-2132.20483398 -11884.33789063 782.91619873 196.000000
-2145.53222656 -11904.90332031 716.79071045 196.000000
-2157.82324219 -11916.55761719 679.37005615 196.000000
-2164.92553711 -11904.76367188 697.01226807 196.000000
-2182.67089844 -11941.40722656 583.73718262 196.000000
-2173.06958008 -11858.11230469 798.12927246 196.000000
-2185.26684570 -11869.71484375 760.69329834 196.000000
-2190.69873047 -11850.98437500 797.02752686 196.000000
-2212.43505859 -11909.47167969 628.00286865 196.000000
-2195.25781250 -11789.68457031 945.91979980 196.000000
-2220.68969727 -11860.79394531 739.09906006 196.000000
-2214.34643555 -11790.22851563 915.71038818 196.000000
-2230.47778320 -11823.64746094 822.51275635 196.000000
-2252.08886719 -11877.39355469 662.42974854 196.000000
-2279.21850586 -11955.25097656 436.86520386 196.000000
-2246.21435547 -11771.99218750 922.49749756 196.000000
-2270.77661133 -11838.66894531 735.36981201 195.000000
-2292.43774414 -11892.30371094 575.25628662 195.000000
-2275.62524414 -11781.57617188 864.48352051 196.000000
-2289.35498047 -11800.70605469 797.90338135 196.000000
-2319.75903320 -11892.16894531 534.87847900 196.000000
-2334.11767578 -11913.88867188 469.30847168 196.000000
-2345.49853516 -11922.58984375 430.76168823 196.000000
-2331.49731445 -11825.73339844 682.58660889 196.000000
-2351.61767578 -11872.29589844 541.13464355 196.000000
-2356.50439453 -11853.44238281 577.41693115 196.000000
-2365.37622070 -11855.62792969 568.33489990 196.000000
-2355.66186523 -11774.86425781 773.00720215 196.000000
-2359.59448242 -11752.58789063 818.64929199 196.000000
-2351.07031250 -11677.94824219 1014.99322510 196.000000
-2373.82958984 -11739.34277344 836.47155762 196.000000
-2390.42895508 -11771.22851563 742.78558350 196.000000
-2393.41040039 -11745.49316406 797.76605225 196.000000
-2420.33666992 -11823.95996094 572.44256592 196.000000
-2410.97778320 -11746.71191406 767.76422119 196.000000
-2427.55712891 -11778.51855469 674.05084229 196.000000
-2414.19702148 -11688.76464844 907.18688965 196.000000
-2442.56469727 -11769.36035156 672.09167480 196.000000
-2461.06738281 -11808.74511719 549.27056885 196.000000
-2449.45385742 -11723.91015625 773.68463135 196.000000
-2461.56567383 -11740.47363281 716.74188232 196.000000
-2482.55297852 -11790.07910156 565.83245850 196.000000
-2474.35595703 -11719.77832031 742.44378662 196.000000
-2467.73876953 -11656.36328125 900.34478760 196.000000
-2488.99780273 -11710.52636719 740.43884277 196.000000
-2484.48901367 -11656.59375000 880.63659668 196.000000
-2528.19067383 -11798.45410156 476.99890137 196.000000
-2541.10815430 -11818.30761719 410.66281128 196.000000
-2487.47216797 -11566.07031250 1093.68884277 196.000000
-2485.53930664 -11523.25292969 1195.44360352 196.000000
-2531.39892578 -11676.39160156 764.07464600 196.000000
-2542.72583008 -11687.40136719 726.42517090 196.000000
-2551.80786133 -11688.93652344 706.48187256 196.000000
-2554.03906250 -11663.14941406 761.41656494 196.000000
-2576.76196289 -11723.10839844 593.09686279 196.000000
-2574.65454102 -11680.23925781 694.82415771 196.000000
-2574.20239258 -11644.21289063 777.83807373 196.000000
-2584.36938477 -11653.72460938 739.54156494 196.000000
-2573.99072266 -11579.41601563 935.88861084 196.000000
-2605.35278320 -11669.51757813 672.52496338 196.000000
-2615.99926758 -11677.78027344 633.82562256 196.000000
-2619.18115234 -11659.98632813 670.40710449 196.000000
-2623.70629883 -11644.39355469 697.23504639 195.000000
-2624.71240234 -11615.18652344 761.51422119 196.000000
-2633.15307617 -11615.82714844 751.89202881 196.000000
-2633.57055664 -11587.82812500 816.54968262 196.000000
-2644.95434570 -11599.44042969 768.46917725 196.000000
-2623.47558594 -11484.46386719 1077.18493652 196.000000
-2640.43872070 -11521.07519531 963.94342041 196.000000
-2660.55273438 -11566.64355469 822.21374512 196.000000
-2687.36059570 -11638.56542969 615.92095947 196.000000
-2677.46972656 -11568.59570313 792.54754639 196.000000
-2708.63256836 -11659.41015625 529.44329834 196.000000
-2692.03540039 -11564.92578125 781.98541260 196.000000
-2712.17333984 -11610.35937500 640.21911621 196.000000
-2708.69384766 -11568.78515625 742.32171631 195.000000
-2748.46020508 -11688.75000000 394.49765015 87.000000
-2745.01098633 -11645.18359375 506.56735229 22.000000
-2819.80395508 -11897.17089844 -206.55210876 5.000000
-2273.77416992 -8809.43652344 -118.55467987 5.000000
-2245.07812500 -8733.37207031 128.55223083 20.000000
-2228.04150391 -8696.95996094 241.90061951 83.000000
-2201.24047852 -8631.93652344 461.02593994 195.000000
-2189.74072266 -8614.79589844 507.30895996 196.000000
-2156.59716797 -8522.46582031 812.01165771 196.000000
-2157.00268555 -8548.10742188 704.57458496 196.000000
-2166.84082031 -8612.06152344 473.23913574 195.000000
-2160.89184570 -8615.74707031 442.47741699 196.000000
-2147.01025391 -8590.45214844 517.54144287 196.000000
-2144.09252930 -8605.10742188 448.43444824 196.000000
-2126.53149414 -8567.75195313 561.48376465 196.000000
-2104.40234375 -8517.83984375 733.16644287 196.000000
-2122.04150391 -8606.40234375 405.19100952 196.000000
-2098.37622070 -8547.21875000 594.96765137 196.000000
-2096.04858398 -8568.48046875 517.37359619 196.000000
-2066.37695313 -8487.48437500 783.88970947 196.000000
-2080.78540039 -8570.48730469 485.36676025 196.000000
-2052.68261719 -8495.01464844 732.72399902 196.000000
-2040.44580078 -8476.95996094 778.71697998 196.000000
-2056.55224609 -8561.07519531 470.22702026 195.000000
-2040.63305664 -8534.80664063 555.29779053 196.000000
-2034.89672852 -8539.74121094 524.93890381 196.000000
-2006.94787598 -8464.42675781 772.36932373 196.000000
-1973.15100098 -8367.36230469 1096.56359863 196.000000
-1999.48596191 -8496.60742188 634.89984131 196.000000
-1979.64379883 -8449.78515625 786.81335449 196.000000
-1974.66503906 -8459.09277344 736.91101074 195.000000
-1957.17834473 -8422.09570313 850.10681152 196.000000
-1964.46679688 -8476.11230469 647.07025146 196.000000
-1963.73229980 -8501.74902344 539.59655762 196.000000
-1953.47656250 -8492.00488281 556.85418701 196.000000
-1951.99890137 -8520.35156250 450.09460449 196.000000
-1922.80493164 -8438.31835938 726.81268311 195.000000
-1918.38793945 -8455.80273438 658.44421387 195.000000
-1908.07971191 -8446.11621094 675.72015381 196.000000
-1921.31469727 -8524.52832031 386.27011108 196.000000
-1893.13330078 -8452.35058594 634.60076904 196.000000
-1864.25354004 -8372.07421875 901.42816162 196.000000
-1857.40063477 -8374.43652344 880.70983887 196.000000
-1866.93029785 -8446.26464844 620.38269043 196.000000
-1860.73034668 -8452.92675781 580.09027100 196.000000
-1871.36608887 -8524.70605469 309.41769409 196.000000
-1855.86999512 -8494.50683594 403.88180542 196.000000
-1874.03344727 -8601.53125000 18.71337700 196.000000
-1789.54418945 -8304.53222656 1053.63452148 196.000000
-1793.00512695 -8349.21484375 878.96423340 196.000000
-1798.40222168 -8400.40527344 685.44000244 196.000000
-1778.19091797 -8352.95800781 837.20092773 196.000000
-1766.97033691 -8340.74707031 864.14788818 196.000000
-1777.00158691 -8416.28710938 594.51287842 196.000000
-1758.85632324 -8377.01171875 717.48345947 196.000000
-1751.64611816 -8381.05761719 686.82244873 196.000000
-1747.79833984 -8402.46582031 609.22546387 196.000000
-1733.05761719 -8376.77246094 684.20709229 196.000000
-1727.77343750 -8388.94921875 624.74060059 196.000000
-1737.90185547 -8463.27636719 344.37252808 196.000000
-1713.03674316 -8400.93359375 564.51409912 196.000000
-1716.29553223 -8448.23437500 380.18185425 196.000000
-1707.47912598 -8445.31835938 378.70480347 196.000000
-1688.66137695 -8408.94042969 502.46578979 196.000000
-1662.62390137 -8337.46386719 740.78668213 196.000000
-1665.65820313 -8384.76855469 556.45135498 196.000000
-1665.30432129 -8422.41503906 421.22189331 196.000000
-1626.26843262 -8297.06542969 851.72113037 196.000000
-1633.03991699 -8360.55371094 609.73504639 196.000000
-1648.76489258 -8461.74121094 233.22447205 196.000000
-1631.32812500 -8423.86230469 356.68026733 196.000000
-1619.03906250 -8409.15136719 393.30746460 196.000000
-1586.13598633 -8313.70996094 728.54302979 196.000000
-1594.39343262 -8385.22167969 457.69958496 196.000000
-1577.04248047 -8347.43652344 581.19500732 196.000000
-1538.00537109 -8225.18652344 1012.57922363 196.000000
-1559.36181641 -8353.20898438 539.91693115 196.000000
-1519.97448730 -8221.33691406 999.81683350 196.000000
-1558.66125488 -8424.59277344 258.01083374 196.000000
-1534.88989258 -8367.03710938 458.79513550 196.000000
-1535.06213379 -8404.62890625 313.21102905 196.000000
-1510.19616699 -8336.30371094 542.13562012 196.000000
-1510.09423828 -8380.93261719 377.69161987 196.000000
-1452.02368164 -8167.61962891 1125.73229980 196.000000
-1498.80773926 -8409.34667969 249.57273865 196.000000
-1527.79443359 -8582.85644531 -376.31832886 196.000000
-1558.37792969 -8758.85839844 -1022.21374512 196.000000
-1560.23315430 -8807.09082031 -1206.31091309 196.000000
-1530.99487305 -8720.03125000 -910.06158447 196.000000
-1508.50756836 -8662.53808594 -719.54644775 196.000000
-1532.43395996 -8809.97753906 -1259.40234375 196.000000
-1506.16992188 -8741.96777344 -1020.05609131 196.000000
-1483.72961426 -8684.53320313 -829.51049805 196.000000
-1485.06262207 -8734.31347656 -1023.59613037 196.000000
-1481.72363281 -8761.09472656 -1130.77685547 196.000000
-1468.56481934 -8752.12500000 -1102.94177246 196.000000
-1450.88623047 -8716.20312500 -989.29437256 196.000000
-1430.32995605 -8666.93066406 -827.54504395 196.000000
-1427.82360840 -8704.63183594 -962.82336426 196.000000
-1407.88879395 -8658.07519531 -810.67498779 196.000000
-1404.69091797 -8689.12792969 -937.44195557 196.000000
-1397.97277832 -8708.11816406 -1005.38629150 196.000000
-1385.48901367 -8696.38085938 -978.25921631 196.000000
-1382.64831543 -8730.10449219 -1114.64831543 196.000000
-1358.23901367 -8666.25000000 -884.39019775 196.000000
-1362.05822754 -8732.06445313 -1136.21203613 196.000000
-1342.19445801 -8685.64160156 -983.99652100 196.000000
-1320.71435547 -8631.24511719 -802.90826416 196.000000
-1326.73681641 -8706.16308594 -1083.24584961 196.000000
-1303.39697266 -8649.33886719 -882.14410400 196.000000
-1313.84606934 -8740.04199219 -1230.59375000 196.000000
-1299.83032227 -8728.63378906 -1193.04187012 196.000000
-1269.15026855 -8628.98730469 -848.32757568 196.000000
-1239.17272949 -8532.07910156 -513.20184326 196.000000
-1250.69042969 -8646.06152344 -927.88684082 196.000000
-1239.88964844 -8640.95019531 -919.56481934 196.000000
-1240.04882813 -8693.37988281 -1123.30932617 196.000000
-1215.59301758 -8627.20214844 -883.26409912 196.000000
-1218.78613281 -8695.63183594 -1144.75085449 196.000000
-1195.98437500 -8633.50683594 -934.66186523 196.000000
-1196.07983398 -8694.15722656 -1156.91210938 196.000000
-1168.40466309 -8603.88574219 -840.57312012 196.000000
-1188.89624023 -8762.81933594 -1429.32421875 196.000000
-1153.98291016 -8645.10839844 -1006.68334961 196.000000
-1127.27978516 -8561.82031250 -719.52819824 196.000000
-1137.31677246 -8665.92871094 -1105.81347656 196.000000
-1128.50634766 -8675.79199219 -1155.55407715 196.000000
-1099.90087891 -8581.95605469 -829.84918213 196.000000
-1085.85937500 -8561.05175781 -763.69622803 196.000000
-1089.75695801 -8645.62890625 -1072.59204102 196.000000
-1091.27685547 -8711.34472656 -1324.49633789 196.000000
-1065.69494629 -8629.34375000 -1036.89562988 196.000000
-1043.86474609 -8570.20507813 -836.27624512 196.000000
-1032.59179688 -8575.07617188 -856.34155273 196.000000
-1021.12237549 -8571.76074219 -857.89788818 196.000000
-1009.48217773 -8564.23339844 -839.83764648 196.000000
-1003.42510986 -8598.34472656 -965.81420898 196.000000
-998.57281494 -8632.21386719 -1102.16674805 196.000000
-981.57287598 -8595.52343750 -978.17077637 196.000000
-962.96466064 -8560.66406250 -853.75671387 196.000000
-957.01916504 -8589.25585938 -970.84039307 196.000000
-954.16827393 -8632.19042969 -1135.73608398 196.000000
-936.01129150 -8600.04101563 -1020.92883301 196.000000
-920.58361816 -8575.61230469 -945.38568115 196.000000
-895.96148682 -8498.19531250 -677.21246338 196.000000
-905.29107666 -8612.71093750 -1102.14831543 196.000000
-875.34008789 -8511.73730469 -736.88043213 196.000000
-882.16564941 -8617.21484375 -1133.27026367 196.000000
-864.90313721 -8582.26953125 -1019.16198730 196.000000
-851.21362305 -8564.31933594 -962.49993896 195.000000
-856.69024658 -8664.44042969 -1339.65136719 196.000000
-828.35571289 -8563.37402344 -984.69232178 196.000000
-807.23107910 -8508.67675781 -782.75140381 196.000000
-804.08050537 -8558.52636719 -976.86761475 196.000000
-792.56079102 -8558.09667969 -987.94543457 196.000000
-790.06054688 -8621.43652344 -1219.84545898 196.000000
-769.01324463 -8558.61523438 -999.34997559 196.000000
-746.78411865 -8492.11523438 -769.54339600 196.000000
-758.87731934 -8643.80468750 -1319.05200195 196.000000
-736.22521973 -8574.67578125 -1079.59582520 196.000000
-722.44122314 -8561.09765625 -1042.46508789 195.000000
-706.13934326 -8539.88769531 -966.02478027 196.000000
-684.18951416 -8469.27539063 -716.55267334 196.000000
-685.17535400 -8550.87304688 -1026.28784180 196.000000
-663.20172119 -8492.72753906 -814.91082764 196.000000
-650.24420166 -8484.52246094 -797.00921631 196.000000
-650.53851318 -8559.25292969 -1077.50854492 196.000000
-625.96166992 -8474.49511719 -780.12390137 196.000000
-615.72509766 -8484.81152344 -829.66302490 196.000000
-611.79467773 -8533.13378906 -1013.79388428 196.000000
-598.69903564 -8524.98339844 -995.86480713 196.000000
-566.98211670 -8398.41894531 -533.81951904 196.000000
-570.83062744 -8506.38476563 -939.94134521 196.000000
-569.98980713 -8578.45214844 -1210.81835938 196.000000
-551.86804199 -8536.06933594 -1067.56274414 196.000000
-525.07373047 -8441.28027344 -721.11199951 196.000000
-533.64410400 -8581.90429688 -1242.59326172 196.000000
-531.78625488 -8655.53417969 -1523.44653320 196.000000
-501.43380737 -8534.47167969 -1080.56628418 196.000000
-490.34484863 -8542.25195313 -1120.41003418 196.000000
-463.20516968 -8427.27343750 -706.84808350 196.000000
-463.04284668 -8524.95996094 -1064.03796387 196.000000
-443.20623779 -8462.70605469 -843.25250244 196.000000
-396.96356201 -8207.20019531 80.98754120 196.000000
