-716.56451416 -9778.22949219 589.51721191
-723.50891113 -9741.85546875 693.86291504
-739.86218262 -9768.45214844 608.59667969
-744.12182617 -9721.07812500 751.33660889
-747.35278320 -9660.62792969 931.89068604
-763.69561768 -9690.42480469 826.65087891
-789.40368652 -9787.18261719 522.55242920
-791.58367920 -9720.68554688 722.15570068
-794.97479248 -9663.22656250 893.18237305
-814.23388672 -9639.55175781 949.71917725
-839.31317139 -9726.31250000 663.44598389
-853.48712158 -9740.93164063 605.82269287
-863.23797607 -9653.83886719 872.85461426
-875.92907715 -9659.42285156 843.80480957
-883.09960938 -9636.03808594 910.31787109
-898.45141602 -9656.34570313 844.06732178
-896.33477783 -9568.87304688 1110.36059570
-915.45092773 -9613.14843750 967.88018799
-920.81127930 -9573.67773438 1081.73217773
-932.08068848 -9577.25292969 1062.49389648
-962.95971680 -9693.42675781 691.34820557
-970.19488525 -9665.90136719 767.08367920
-983.96307373 -9684.40429688 700.19531250
-985.95837402 -9623.65136719 891.16809082
-996.49340820 -9617.09179688 900.20751953
-1004.71411133 -9602.60644531 938.11627197
-1013.67791748 -9587.04394531 975.73840332
-1031.19763184 -9622.36816406 851.38238525
-1058.42419434 -9714.52050781 545.98382568
-1049.24072266 -9598.24511719 907.84912109
-1068.35351563 -9642.46875000 754.89202881
-1076.43518066 -9620.61035156 821.99700928
-1084.45776367 -9606.05761719 859.89367676
-1123.45275879 -9763.81835938 344.85470581
-1106.89196777 -9601.41992188 859.78387451
-1109.25915527 -9549.89941406 1011.72790527
-1141.16479492 -9669.53515625 631.27441406
-1152.07568359 -9602.28808594 820.80682373
-1161.71789551 -9596.37207031 840.53649902
-1185.89514160 -9667.25097656 601.80047607
-1192.62048340 -9579.06445313 858.02301025
-1208.70849609 -9608.91503906 763.40332031
-1209.97753906 -9554.37792969 924.86267090
-1220.52746582 -9550.55664063 924.32861328
-1251.93798828 -9664.09277344 552.45660400
-1235.23779297 -9514.16406250 1018.84460449
-1262.48876953 -9599.70800781 732.42791748
-1261.75390625 -9536.24511719 922.47607422
-1265.98083496 -9503.40527344 1027.94799805
-1289.98339844 -9570.99023438 798.69677734
-1300.97753906 -9570.05078125 788.61999512
-1320.71228027 -9613.49121094 646.02349854
-1326.93737793 -9592.78320313 702.94177246
-1335.74987793 -9579.64355469 741.40319824
-1344.35595703 -9566.74902344 769.43347168
-1350.92858887 -9491.22949219 998.21472168
-1378.75817871 -9576.43164063 711.76141357
-1368.37670898 -9468.39941406 1044.74169922
-1391.42163086 -9533.83496094 825.27770996
-1401.14733887 -9526.57031250 844.66552734
-1398.76489258 -9460.16210938 1044.22290039
-1430.30554199 -9567.08593750 691.32678223
-1421.80114746 -9470.99511719 986.19079590
-1459.64831543 -9603.42089844 547.20758057
-1467.24658203 -9591.52050781 575.51257324
-1467.72766113 -9539.69335938 737.83868408
-1475.93957520 -9526.67675781 765.84472656
-1495.77685547 -9569.97070313 612.76239014
-1488.45825195 -9486.92187500 869.79968262
-1491.68994141 -9449.92187500 984.46661377
-1522.69580078 -9546.48925781 659.81738281
-1502.09753418 -9397.21093750 1126.24499512
-1535.06213379 -9506.40429688 774.17907715
-1549.33264160 -9522.92480469 706.85729980
-1560.53527832 -9524.37402344 697.60742188
-1566.58081055 -9502.39355469 754.18402100
-1582.67517090 -9531.81835938 649.02642822
-1589.29760742 -9512.77636719 696.06927490
-1592.73095703 -9478.69628906 801.18707275
-1619.74414063 -9558.31738281 533.98132324
-1628.86682129 -9551.06054688 542.88928223
-1614.02734375 -9434.50878906 904.47692871
-1653.47509766 -9570.13378906 456.14620972
-1638.44067383 -9453.62011719 817.73382568
-1658.54028320 -9496.26757813 675.00921631
-1679.96472168 -9545.03417969 502.79238892
-1658.63146973 -9406.11230469 940.93927002
-1663.51293945 -9381.13769531 1007.03417969
-1676.97021484 -9394.21777344 959.61608887
-1695.07031250 -9428.17480469 835.04937744
-1724.54187012 -9516.26660156 539.19061279
-1742.76525879 -9549.90136719 425.03048706
-1751.60083008 -9542.51074219 433.91110229
-1761.75903320 -9544.85351563 424.90838623
-1776.63134766 -9563.93554688 347.98278809
-1756.89697266 -9432.91308594 757.24182129
-1785.29968262 -9510.82714844 489.64840698
-1804.92346191 -9554.30566406 347.17098999
-1804.02307129 -9505.68066406 489.49578857
-1803.71997070 -9460.01562500 622.29608154
-1786.11767578 -9344.98730469 984.19799805
-1812.58056641 -9413.94531250 745.18737793
-1818.26721191 -9394.48925781 802.59088135
-1816.27893066 -9342.99316406 954.45550537
-1849.17724609 -9442.34765625 620.38867188
-1856.22705078 -9428.98535156 648.30322266
-1858.31884766 -9395.08789063 742.95947266
-1868.10180664 -9397.27636719 733.91412354
-1874.32641602 -9380.97167969 771.35931396
-1908.88757324 -9481.88574219 427.42309570
-1878.75341797 -9315.86230469 961.53857422
-1911.31298828 -9412.01757813 636.96282959
-1922.36682129 -9415.92480469 618.06341553
-1942.81567383 -9458.12402344 464.79791260
-1930.89416504 -9368.58007813 740.60357666
-1983.20361328 -9543.55468750 158.55409241
-1966.02636719 -9433.30175781 511.51419067
-1967.64416504 -9399.36328125 606.14617920
-1966.38085938 -9357.82226563 729.69049072
-1959.09375000 -9288.84179688 938.75109863
-1992.73034668 -9383.48242188 613.81829834
-1985.33032227 -9318.33691406 824.04779053
-1988.86743164 -9293.18750000 890.07257080
-1997.52490234 -9288.47656250 889.34631348
-2018.75878906 -9333.35253906 726.49841309
-2019.35632324 -9300.59667969 821.42938232
-2027.21252441 -9292.93261719 830.23059082
-2049.10717773 -9340.38867188 668.23431396
-2055.44311523 -9326.86132813 696.09979248
-2072.26586914 -9357.94726563 591.61981201
-2073.28271484 -9324.00683594 686.23651123
-2074.23461914 -9290.08105469 780.85321045
-2116.79223633 -9420.08984375 352.10571289
-2106.33105469 -9342.46777344 589.76751709
-2118.59399414 -9352.15917969 541.31768799
-2125.50952148 -9345.31640625 560.79711914
-2096.40356445 -9197.97753906 1027.35888672
-2124.65258789 -9268.70996094 778.61932373
-2141.43579102 -9295.79785156 672.93078613
-2165.95776367 -9355.74023438 473.03460693
-2166.55297852 -9321.77832031 567.62988281
-2158.55273438 -9255.90527344 767.14782715
-2160.74633789 -9231.85546875 833.43499756
-2160.35791016 -9195.04492188 937.57617188
-2186.46899414 -9256.82226563 717.40722656
-2206.37841797 -9295.35351563 573.53509521
-2225.33789063 -9330.71484375 449.59408569
-2204.57934570 -9222.62890625 792.50177002
-2236.32543945 -9304.53320313 505.52978516
-2222.06420898 -9218.24511719 782.21728516
-2235.85864258 -9237.59277344 705.40771484
-2265.91430664 -9313.36816406 447.89428711
-2252.43579102 -9230.24121094 704.64471436
-2248.41601563 -9181.86132813 846.92382813
-2263.53637695 -9206.68652344 761.41052246
-2280.26928711 -9233.44628906 655.65789795
-2288.16918945 -9228.39746094 654.83697510
-2303.54614258 -9253.39746094 558.91717529
-2296.06079102 -9193.48339844 739.34930420
-2344.13085938 -9332.45800781 271.89630127
-2301.91625977 -9152.55859375 853.33251953
-2360.92504883 -9329.15039063 251.44039917
-2350.81152344 -9260.58984375 460.48880005
-2348.76684570 -9220.88476563 574.13629150
-2352.65820313 -9205.42578125 611.76141357
-2358.43310547 -9194.30664063 640.39001465
-2366.91210938 -9192.04882813 629.99572754
-2344.02563477 -9080.45214844 982.18072510
-2384.63598633 -9194.21386719 600.81481934
-2382.28295898 -9154.54199219 714.45922852
-2371.26538086 -9085.89843750 933.90191650
-2388.19262695 -9116.42773438 818.84759521
-2404.83789063 -9142.86328125 713.02191162
-2392.78125000 -9071.38574219 942.00738525
-2437.87133789 -9195.40820313 511.73089600
-2442.27612305 -9182.76757813 539.79187012
-2411.01489258 -9045.57714844 977.87481689
-2439.93041992 -9114.71093750 739.26702881
-2428.16430664 -9047.60546875 948.63580322
-2457.44262695 -9116.91113281 699.63067627
-2459.65039063 -9094.47949219 756.00280762
-2477.43872070 -9127.65429688 631.35681152
-2504.28051758 -9188.21777344 410.95269775
-2483.91870117 -9091.12792969 725.83312988
-2491.10913086 -9085.85449219 724.93591309
-2511.98193359 -9126.31933594 571.32562256
-2522.07275391 -9133.64355469 532.54687500
-2521.13500977 -9102.38769531 627.91741943
-2525.65747070 -9088.50000000 655.63659668
-2513.23657227 -9021.56445313 865.01757813
-2525.08227539 -9033.15332031 817.21191406
-2547.37231445 -9050.80664063 730.29479980
-2578.20507813 -9126.51367188 462.41448975
-2567.75268555 -9064.11621094 652.38342285
-2555.84448242 -9000.11425781 852.22161865
-2561.45532227 -8991.68261719 871.20971680
-2595.47607422 -9074.60058594 574.34997559
-2583.01416016 -9006.58105469 783.42279053
-2584.05322266 -8985.33105469 840.06652832
-2606.69335938 -9031.14062500 667.28509521
-2638.19921875 -9105.32324219 399.02951050
-2620.62182617 -9024.36035156 656.14617920
-2658.85815430 -9120.99023438 321.87799072
-2651.40576172 -9070.07324219 473.66329956
-2642.09765625 -9013.51562500 644.54638672
-2662.12109375 -9054.46875000 501.51058960
-2656.27172852 -9009.27636719 634.20397949
-2657.08569336 -8986.57910156 700.89111328
-2713.83398438 -9139.85546875 165.23739624
-2631.12890625 -8855.00292969 1109.81738281
-2198.32568359 -6200.87109375 213.07679749
-2180.06005859 -6167.83886719 337.79290771
-2153.39794922 -6115.72802734 560.35150146
-2149.88720703 -6123.17138672 510.29971313
-2139.50463867 -6112.02685547 537.76550293
-2130.87939453 -6110.12451172 536.60272217
-2108.01977539 -6064.16406250 719.73870850
-2095.30468750 -6050.37255859 777.26751709
-2127.46923828 -6159.00781250 269.62890625
-2094.56103516 -6084.81103516 579.26940918
-2084.66967773 -6074.89404297 607.06170654
-2076.67529297 -6075.23046875 596.18218994
-2085.31567383 -6118.51416016 380.40460205
-2044.18725586 -6020.59130859 797.14648438
-2046.46716309 -6045.47412109 669.25347900
-2034.57775879 -6034.99853516 707.04339600
-2025.53771973 -6028.36035156 715.09088135
-2022.36584473 -6038.05126953 655.31610107
-651.32159424 -5638.63964844 611.81939697
-619.26782227 -5590.95312500 825.30212402
-622.77087402 -5662.80810547 472.30520630
-605.06262207 -5628.78271484 617.74902344
-579.99090576 -5616.51123047 665.13671875
-564.41717529 -5592.92578125 761.73388672
-559.68457031 -5625.34960938 594.43957520
-535.37127686 -5560.00488281 906.90911865
-543.95642090 -5662.93798828 407.27230835
-530.29547119 -5649.76464844 455.02319336
-521.31622314 -5665.32666016 386.29150391
-507.63558960 -5652.17968750 434.05151367
-486.30020142 -5597.62841797 677.33447266
-478.09460449 -5610.39697266 608.05657959
-457.21249390 -5564.92333984 822.59521484
-447.00399780 -5570.49707031 782.40960693
-432.46319580 -5611.64404297 565.42047119
-411.83599854 -5559.31640625 798.98980713
-398.84170532 -5557.39892578 808.26409912
-407.32409668 -5667.43115234 279.48611450
-379.25570679 -5571.73388672 718.40197754
-359.57901001 -5523.64111328 932.46771240
-357.73239136 -5575.76513672 677.45062256
-347.74108887 -5592.51513672 598.74871826
-342.67379761 -5631.23388672 402.15148926
-326.16949463 -5605.63623047 529.04968262
-284.21850586 -5491.07177734 1045.27575684
-276.44970703 -5522.32958984 898.14752197
-277.22589111 -5595.13183594 545.35211182
-263.13980103 -5580.22802734 603.02429199
-245.81939697 -5544.71337891 758.50207520
-225.14489746 -5495.53955078 992.78857422
-228.95269775 -5591.02929688 532.40661621
-209.16439819 -5539.06591797 766.14978027
-202.95680237 -5575.79492188 579.35778809
-190.67070007 -5568.16748047 607.97113037
-182.77900696 -5603.62402344 441.31161499
-171.37590027 -5607.38330078 411.01071167
-151.80760193 -5555.52685547 644.79968262
-147.84930420 -5605.62988281 399.57269287
-130.73899841 -5570.29492188 555.12988281
-119.25340271 -5583.13574219 496.08151245
-110.34320068 -5600.30419922 407.36080933
-93.01129913 -5571.99169922 543.94830322
-85.10990143 -5602.60449219 386.52951050
-65.38980103 -5541.58544922 669.53118896
-47.37760162 -5507.14697266 835.49188232
-38.81269836 -5533.68896484 697.65319824
-26.16250038 -5524.17724609 736.13281250
-7.99620008 -5487.73486328 911.90478516
-2.96880007 -5543.10888672 637.12152100
11.39990044 -5526.48779297 704.73327637
3.29660010 -5590.23974609 401.46789551
32.53049850 -5547.72607422 585.85198975
53.35160065 -5488.77636719 869.28698730
59.92020035 -5535.94287109 633.64251709
75.34770203 -5503.93310547 779.79119873
86.98799896 -5510.01123047 739.82849121
101.31279755 -5493.50537109 807.48901367
106.64990234 -5547.81103516 542.73681641
124.74150085 -5509.54248047 728.39349365
136.98890686 -5511.56054688 708.01702881
154.27639771 -5461.17968750 942.26989746
163.36759949 -5503.03369141 746.36828613
170.37879944 -5554.35644531 491.18350220
189.30670166 -5487.60107422 803.73529053
196.33360291 -5552.06835938 500.21359253
223.61639404 -5533.68164063 567.17517090
242.78779602 -5481.21875000 821.40808105
255.53419495 -5472.00732422 860.02807617
266.20809937 -5492.62255859 751.65087891
281.66519165 -5467.83349609 878.92462158
291.28579712 -5500.78222656 711.84997559
297.43310547 -5572.69042969 358.84399414
317.24771118 -5496.96826172 710.41247559
327.85940552 -5512.43457031 631.64361572
343.97720337 -5475.71630859 797.29919434
356.82009888 -5475.90917969 786.82238770
368.18539429 -5507.67187500 639.91998291
383.08718872 -5474.00390625 796.04187012
384.62020874 -5613.53759766 120.09889984
397.90341187 -5626.91601563 61.29460144
421.73028564 -5480.60937500 755.69451904
431.72799683 -5519.79638672 559.30468750
438.03961182 -5625.38232422 60.11660004
455.23419189 -5572.40380859 304.14120483
-287.46960449 -1399.25500488 227.12399292
-304.30419922 -1415.31530762 58.40449905
-324.39471436 -1398.10180664 168.07249451
-325.00421143 -1364.85339355 466.48858643
-331.66690063 -1347.01745605 635.95568848
-346.54721069 -1353.59008789 546.67962646
-358.25149536 -1350.72058105 546.85662842
-377.00479126 -1371.87280273 328.45458984
-384.38861084 -1356.42175293 447.89730835
-391.42910767 -1340.64782715 597.48828125
-415.45138550 -1376.36108398 239.95660400
-420.09930420 -1353.57141113 428.97030640
-415.36199951 -1305.41748047 886.64849854
-444.82989502 -1355.66772461 389.98721313
-459.15100098 -1360.71179199 340.81719971
-460.02090454 -1328.51770020 619.27191162
-473.76080322 -1334.89160156 540.02679443
-488.34271240 -1340.20495605 460.71160889
-490.83630371 -1313.23864746 689.47747803
-503.84298706 -1315.07849121 670.12017822
-534.25787354 -1361.93395996 193.29220581
-541.73931885 -1351.57617188 273.06518555
-532.68322754 -1295.51647949 780.09027100
-571.11682129 -1362.70849609 134.65879822
-570.33239746 -1331.56591797 413.18359375
-579.62628174 -1323.24914551 463.07070923
-600.44451904 -1343.94128418 234.70460510
-595.16900635 -1303.18481445 632.80938721
-614.76898193 -1320.74304199 434.25900269
-625.60327148 -1316.52600098 444.39999390
-623.67541504 -1281.27648926 752.65808105
-634.81530762 -1281.91503906 753.25921631
-655.37988281 -1301.45361328 534.84802246
-673.39270020 -1315.48120117 396.26458740
-668.51251221 -1277.14318848 744.33288574
-687.88360596 -1293.51464844 555.73718262
-691.45819092 -1272.72241211 724.87487793
-706.81341553 -1280.47924805 645.91668701
-727.30792236 -1301.95275879 417.64828491
-722.62847900 -1262.60339355 765.64642334
-740.34008789 -1274.73779297 616.80603027
-783.85131836 -1319.48364258 130.40769958
-774.06207275 -1270.62280273 597.96441650
-783.56439209 -1264.18176270 627.99072266
-790.39587402 -1254.69177246 697.83007813
-805.28161621 -1261.25915527 628.82067871
-827.87628174 -1283.48303223 380.63049316
-831.63452148 -1264.69250488 529.88891602
-841.66931152 -1262.33105469 530.17572021
-857.54498291 -1270.87145996 441.29940796
-853.59582520 -1238.82470703 729.73022461
-876.19848633 -1261.64929199 501.75170898
-886.92230225 -1258.16613770 501.97448730
-900.56292725 -1260.79516602 442.57809448
-913.22882080 -1261.36145020 403.05780029
-913.53302002 -1240.26940918 612.32598877
-934.09478760 -1257.12756348 413.83660889
-931.47387695 -1229.19372559 662.51818848
-936.23742676 -1211.35217285 791.83038330
-967.21447754 -1251.58081055 374.83819580
-949.85797119 -1192.11962891 921.50567627
-998.32409668 -1265.43786621 196.78950500
-984.03552246 -1215.19116211 664.03497314
-991.38421631 -1205.50341797 723.87078857
-1014.47442627 -1227.95910645 495.91668701
-1011.14898682 -1200.07019043 744.58612061
-1024.64855957 -1202.51196289 685.20202637
-1038.15722656 -1204.93054199 625.82391357
-1049.57556152 -1207.12072754 606.57342529
-1064.68591309 -1212.53454590 517.38891602
-1083.02441406 -1223.97705078 368.60348511
-1074.80017090 -1186.67871094 726.80047607
-1081.25573730 -1175.91296387 796.56982422
-1116.38366699 -1222.40832520 340.21301270
-1123.94726563 -1213.60400391 390.11529541
-1129.64294434 -1203.87841797 459.95480347
-1128.87097168 -1179.98144531 658.86828613
-1122.82946777 -1168.91625977 768.14257813
-1170.74414063 -1211.58459473 271.90548706
-1155.72314453 -1164.70739746 709.30169678
-1171.54931641 -1172.66882324 620.45281982
-1195.65563965 -1193.90039063 372.34188843
-1180.92797852 -1145.98986816 809.66180420
-1202.24902344 -1166.00341797 611.60882568
-1217.36987305 -1171.14733887 522.43951416
-1216.50366211 -1148.28259277 711.41351318
-1226.30065918 -1146.50646973 701.77917480
-1241.54357910 -1153.33874512 622.86370850
-1250.87023926 -1148.43798828 633.03222656
-1253.77160645 -1132.56774902 752.46582031
-1272.37829590 -1147.42138672 604.08929443
-1268.14526367 -1119.59313965 842.71539307
-1310.18859863 -1172.46325684 286.77059937
-1317.23620605 -1165.25671387 346.92678833
-1315.19909668 -1141.39001465 545.81896973
-1316.02368164 -1122.51318359 695.04687500
-1337.10974121 -1137.36108398 506.56118774
-1370.19079590 -1174.07983398 109.55809784
-1372.31921387 -1139.01184082 408.33129883
-1398.95874023 -1164.73559570 120.59329987
-1390.99108887 -1131.99389648 408.87139893
-1379.87902832 -1096.09411621 757.05560303
-1397.35583496 -1106.95434570 618.30438232
-1405.05456543 -1099.91296387 648.33978271
-1412.16687012 -1093.61303711 698.55041504
-1421.03039551 -1088.52917480 708.71881104
-1409.82568359 -1054.06542969 1026.83703613
-1430.47998047 -1067.66064453 848.29699707
-1459.38012695 -1093.96484375 540.64642334
-1461.88049316 -1082.85498047 650.51257324
-1456.68054199 -1056.15124512 879.17779541
-1490.86242676 -1091.93664551 502.32540894
-1491.29040527 -1074.03613281 641.60461426
-1503.79577637 -1076.83215332 582.31500244
-1516.32580566 -1077.50720215 532.89489746
-1535.95996094 -1088.89611816 374.22790527
-1518.70239258 -1044.67199707 781.64672852
-1516.85925293 -1027.69970703 951.08642578
-1534.48132324 -1036.14404297 822.21368408
-1569.17016602 -1069.83972168 435.14099121
-1598.77221680 -1099.55212402 127.89610291
-1592.85974121 -1072.87341309 356.53988647
-1587.48181152 -1047.20349121 575.25018311
-1590.61108398 -1035.90466309 675.10681152
-1593.03320313 -1024.00207520 764.77661133
-1612.75219727 -1035.18420410 606.12182617
-1600.98999023 -1000.86840820 914.19982910
-1627.44824219 -1025.50378418 656.61322021
-1614.13940430 -989.27807617 984.54577637
-1652.15563965 -1026.43762207 557.77282715
-1661.78930664 -1023.01757813 548.07427979
-1659.82617188 -1007.04852295 707.56219482
-1660.48986816 -991.11077881 826.95611572
-1698.19885254 -1029.20825195 400.25628662
-1706.35180664 -1021.70141602 420.28500366
-1697.27526855 -996.14227295 679.06488037
-1704.67871094 -989.79187012 699.15161133
-1707.87915039 -977.68792725 778.81768799
-1728.53210449 -991.60998535 600.37542725
-1728.11328125 -976.44152832 739.92608643
-1757.14831543 -999.68511963 452.20028687
-1756.01782227 -981.81408691 591.43670654
-1787.36779785 -1009.92340088 264.05938721
-1785.39123535 -992.83892822 423.46490479
-1767.16015625 -954.21197510 791.13146973
-1786.40551758 -963.96881104 642.42242432
-1803.45898438 -972.57690430 533.73406982
-1807.72619629 -962.31872559 593.53021240
-1816.37109375 -959.85241699 583.88970947
-1838.57934570 -973.28228760 395.46508789
-1835.43676758 -955.27709961 564.78271484
-1811.40173340 -910.19641113 1001.93170166
-1845.80432129 -937.56951904 654.58679199
-1860.90356445 -943.55340576 555.58471680
-1882.35278320 -957.65386963 387.32598877
-1874.03344727 -933.41882324 606.03332520
-1881.64294434 -927.83648682 616.18347168
-1877.42382813 -907.20141602 785.18371582
-1892.34167480 -911.01440430 696.04492188
-1901.35583496 -911.12280273 686.69732666
-1925.20996094 -926.14611816 478.42401123
-1933.46508789 -921.44171143 478.64068604
-1935.70239258 -924.25152588 448.85861206
-1955.16955566 -922.40057373 409.94259644
-1987.42895508 -947.54907227 92.46520233
-1935.19006348 -869.85412598 897.13427734
-1971.39575195 -901.74462891 520.15679932
-1994.66052246 -915.61718750 321.81390381
-1990.62390137 -895.94207764 480.86849976
-1991.08715820 -885.71051025 580.71887207
-2000.63830566 -882.78997803 561.07171631
-1987.96179199 -852.95202637 829.32122803
-2029.87658691 -891.04949951 382.86129761
-2019.97558594 -866.67651367 621.62158203
-2000.10961914 -828.56298828 979.20520020
-2040.43750000 -862.58892822 562.47552490
-2035.13476563 -842.06707764 731.43908691
-2020.42504883 -814.31738281 1019.88220215
-2070.50073242 -861.35821533 474.16378784
-2060.13037109 -833.22991943 712.55181885
-2065.55810547 -829.44348145 742.88928223
-2075.64746094 -827.33892822 713.31170654
-2086.51245117 -826.13500977 673.80358887
-2095.24389648 -824.25152588 654.21142578
-2117.95678711 -836.74237061 465.80511475
-2136.52294922 -846.37658691 337.25579834
-2106.05224609 -797.57757568 813.91900635
-2142.57568359 -827.60247803 446.90240479
-2122.79833984 -793.39971924 794.81201172
-2162.36206055 -824.90112305 397.95529175
-2145.33593750 -793.80828857 695.99597168
-2157.66967773 -794.30450439 636.63317871
-2169.74365234 -796.53088379 587.48468018
-2162.14697266 -776.39788818 766.40319824
-2180.90966797 -784.10601807 627.63061523
-2184.27612305 -774.58502197 677.45062256
-2199.86889648 -769.30877686 668.24652100
-2233.37817383 -779.97210693 440.32901001
-2201.02294922 -733.47918701 927.15142822
-2237.35620117 -762.00128174 570.07440186
-2252.04663086 -765.01397705 480.92959595
-2235.04394531 -735.67828369 779.15948486
-2224.32617188 -712.98370361 987.82952881
-2244.72753906 -722.26251221 829.20220947
-2283.45971680 -751.15069580 452.22158813
-2275.64428711 -733.80212402 631.39642334
-2260.20678711 -704.60968018 899.54827881
-2272.27197266 -704.87121582 840.17028809
-2282.65722656 -703.33001709 800.64392090
-2310.69995117 -724.26531982 553.03948975
-2302.57153320 -703.13220215 731.85729980
-2310.39282227 -698.88140869 722.10083008
-2342.22485352 -721.48950195 424.58801270
-2328.53320313 -696.83172607 673.15667725
-2312.52026367 -667.80371094 941.28411865
-2364.46484375 -709.42608643 415.44799805
-2339.34399414 -672.79602051 782.87957764
-2355.21362305 -679.05700684 684.07897949
-2363.74365234 -675.61560059 664.38897705
-2392.84228516 -693.23657227 406.51550293
-2388.50268555 -680.43048096 536.03509521
-2373.74536133 -653.27459717 784.29559326
-2391.66650391 -659.43322754 655.43817139
-2394.43701172 -651.88922119 695.35522461
-2402.84204102 -648.38940430 675.65911865
-2430.80810547 -666.70202637 437.91198730
-2407.04394531 -630.92388916 785.40338135
-2392.73901367 -608.59411621 1024.06298828
-2396.64160156 -600.75250244 1053.98242188
-2432.86108398 -625.02478027 716.72058105
-2444.17749023 -626.13482666 657.38519287
-2442.79077148 -613.03979492 746.84442139
-2445.34057617 -606.04119873 796.88098145
-2450.44213867 -601.07287598 807.00677490
-2439.20947266 -578.51367188 1005.61822510
-2471.19995117 -598.20147705 717.97479248
-2468.30566406 -586.02697754 827.54498291
-2495.48315430 -602.52722168 589.58117676
-2522.27368164 -616.89959717 361.47760010
-2517.95410156 -601.21221924 480.69448853
-420.42309570 -10500.95312500 283.80120850
-541.86132813 -10262.63574219 937.71362305
-565.24981689 -10260.70019531 927.61218262
-589.81451416 -10260.81347656 907.71478271
-631.37042236 -10208.22753906 1039.91687012
-649.70648193 -10259.04687500 888.91601563
-671.93481445 -10239.77734375 936.34948730
-720.72692871 -10246.37695313 888.25067139
-793.30822754 -10259.67480469 801.47399902
-822.87420654 -10222.52832031 885.66888428
-833.28448486 -10209.39941406 924.06298828
-858.92858887 -10228.68457031 847.45172119
-889.06567383 -10193.71484375 942.99621582
-906.96691895 -10234.00195313 809.64959717
-938.35491943 -10211.75585938 856.78100586
-951.01452637 -10217.61328125 827.79241943
-979.74237061 -10254.94042969 704.64471436
-1000.10437012 -10235.33496094 741.52832031
-1026.08984375 -10185.11621094 863.56500244
-1061.10009766 -10255.40136719 635.69641113
-1055.52648926 -10156.26562500 929.60498047
-1073.13769531 -10193.11132813 805.70062256
-1087.96679688 -10210.86816406 749.16381836
-1097.61022949 -10205.15722656 758.40447998
-1100.19250488 -10151.66699219 909.67102051
-1119.67932129 -10197.38574219 767.72161865
-1111.35498047 -10085.85058594 1099.58483887
-1154.09155273 -10268.43164063 540.11218262
-1163.38220215 -10255.33691406 568.01141357
-1145.69604492 -10090.94921875 1061.18762207
-1183.22302246 -10242.65527344 586.15417480
-1186.17126465 -10191.86523438 738.35748291
-1197.99499512 -10194.28710938 718.79882813
-1197.28405762 -10125.23535156 917.50177002
-1225.21423340 -10225.02539063 604.07708740
-1232.07714844 -10199.44531250 669.91882324
-1235.57043457 -10155.24121094 792.70007324
-1253.39013672 -10195.56542969 669.99810791
-1262.30212402 -10119.55078125 877.59387207
-1281.81384277 -10165.29980469 725.15863037
-1280.49804688 -10100.08886719 925.10357666
-1292.09338379 -10102.39257813 905.52972412
-1291.71667480 -10039.58886719 1085.25073242
-1329.54614258 -10188.25781250 630.35577393
-1329.67565918 -10128.51953125 800.57672119
-1337.93469238 -10111.78808594 848.35498047
-1338.86853027 -10062.45703125 990.41131592
-1345.68322754 -10039.91503906 1046.74682617
-1371.72985840 -10119.53515625 789.88641357
-1376.90808105 -10087.28808594 885.11041260
-1387.17053223 -10083.28027344 884.49102783
-1391.94543457 -10055.61425781 960.11041260
-1390.85388184 -9992.82421875 1139.81921387
-1416.49511719 -10069.19824219 892.42547607
-1443.43920898 -10155.52734375 627.28881836
-1450.04406738 -10132.88964844 683.59979248
-1449.34948730 -10073.17285156 853.81158447
-1450.85705566 -10030.03027344 976.87377930
-1461.52160645 -10029.02832031 966.74798584
-1478.88903809 -10061.97363281 852.20941162
-1505.59948730 -10140.80859375 605.70977783
-1485.40075684 -9989.62792969 1060.98022461
-1497.28918457 -9994.35742188 1042.27587891
-1540.73034668 -10156.79980469 529.05877686
-1527.07995605 -10039.21484375 890.34417725
-1526.35925293 -9982.61230469 1051.05273438
-1543.74304199 -10015.43066406 936.49291992
-1564.38720703 -10063.24121094 784.88146973
-1572.60180664 -10003.53027344 945.23321533
-1604.68786621 -10107.08789063 612.32897949
-1610.05065918 -10081.26171875 678.10052490
-1625.56982422 -10108.88671875 582.80938721
-1629.57458496 -10076.89355469 667.56591797
-1637.44177246 -10062.98730469 705.78308105
-1638.03698730 -10019.81933594 828.82379150
-1647.05615234 -10012.43652344 837.63732910
-1650.16687012 -9977.38085938 931.88171387
-1649.92944336 -9926.97167969 1073.59912109
-1678.55163574 -10015.55371094 798.82812500
-1694.07653809 -10038.84277344 712.68908691
-1694.39990234 -9991.09570313 855.31622314
-1695.92761230 -9954.07910156 959.36267090
-1730.75012207 -10066.34277344 597.89727783
-1731.59350586 -10021.65722656 731.02111816
-1761.22534180 -10109.27441406 445.49560547
-1757.26452637 -10047.68359375 625.48211670
-1769.42614746 -10055.12890625 597.20452881
-1770.04345703 -10010.81250000 719.90960693
-1808.70190430 -10138.12597656 310.92831421
-1795.63366699 -10036.71875000 614.34320068
-1772.79895020 -9888.28027344 1059.86926270
-1808.12963867 -9999.79199219 708.75537109
-1831.92810059 -10063.78027344 499.45071411
-1808.73571777 -9915.40429688 944.98278809
-1842.90734863 -10021.04003906 602.41998291
-1847.28039551 -9995.08496094 668.14569092
-1847.45251465 -9954.99121094 781.66802979
-1869.17321777 -10005.08886719 620.41619873
-1864.28894043 -9939.39355469 809.58251953
-1886.13122559 -9994.01855469 628.72918701
-1898.02453613 -10001.27148438 600.40277100
-1890.10534668 -9923.37695313 827.54498291
-1914.07067871 -9986.71777344 628.60711670
-1915.98217773 -9951.56835938 722.80267334
-1894.92590332 -9818.79296875 1120.88305664
-1946.80651855 -9996.83984375 560.75128174
-1957.23413086 -9998.27148438 540.98498535
-1945.34460449 -9909.38671875 806.43298340
-1967.26513672 -9959.58593750 634.71667480
-1958.63940430 -9881.39746094 872.26562500
-1956.63354492 -9835.22949219 1004.76068115
-2002.65869141 -9985.86816406 519.63488770
-1988.06677246 -9883.72753906 822.75689697
-1993.26440430 -9868.00292969 860.27832031
-2000.52099609 -9857.20996094 878.48510742
-2010.69970703 -9858.57324219 858.70062256
-2043.71240234 -9953.79589844 554.87982178
-2039.18310547 -9898.51074219 715.85992432
-2036.67297363 -9848.16601563 857.52868652
-2030.20617676 -9782.26562500 1057.08911133
-2039.63525391 -9784.74707031 1037.60668945
-2069.04931641 -9864.62011719 781.24987793
-2086.63989258 -9896.24707031 666.45812988
-2071.92504883 -9801.55371094 950.91247559
-2115.07934570 -9935.93847656 523.56561279
-2125.13037109 -9937.14550781 503.74139404
-2113.08349609 -9850.41699219 759.38098145
-2141.36621094 -9924.36523438 511.57830811
-2155.95190430 -9947.56640625 435.97711182
-2147.52026367 -9876.01757813 644.11920166
-2161.29003906 -9892.32226563 576.78521729
-2174.46508789 -9909.77734375 509.76858521
-2165.81665039 -9838.28027344 717.91687012
-2170.23632813 -9818.24511719 764.56896973
-2180.05395508 -9823.20605469 745.94110107
-2164.13989258 -9724.55566406 1039.59643555
-2192.60571289 -9798.23632813 791.74188232
-2205.48657227 -9811.42480469 733.88372803
-2212.87231445 -9807.27636719 743.74078369
-2246.19946289 -9898.94238281 438.85800171
-2237.02270508 -9827.52832031 647.00622559
-2274.40014648 -9938.04199219 295.82211304
-2243.71166992 -9785.16699219 760.49188232
-2257.89111328 -9803.93359375 694.00329590
-2249.98315430 -9738.61621094 883.15118408
-2278.71386719 -9811.98144531 635.23547363
-2287.73461914 -9814.15136719 615.67382813
-2253.74267578 -9652.09179688 1119.25952148
-2297.78344727 -9782.60644531 690.79888916
-2314.79809570 -9814.85546875 576.20837402
-2321.08544922 -9803.75585938 594.31451416
-2308.71337891 -9723.46777344 830.97222900
-2310.27954102 -9698.53320313 896.91772461
-2330.24926758 -9738.55468750 753.47601318
-2317.37329102 -9657.96484375 1000.53100586
-2343.86767578 -9721.98925781 781.05767822
-2377.24121094 -9814.16503906 476.37020874
-2343.67358398 -9658.54003906 961.00152588
-2388.33081055 -9788.49707031 532.43402100
-2396.29443359 -9787.52636719 522.33270264
-2389.63134766 -9731.00878906 693.35632324
-2399.72241211 -9734.84375000 663.91601563
-2406.19091797 -9726.31640625 682.87652588
-2433.17480469 -9794.25585938 454.17181396
-2400.73364258 -9645.24218750 909.43298340
-2435.77026367 -9738.89453125 594.85162354
-2419.52124023 -9649.50000000 870.42230225
-2428.93090820 -9654.47851563 841.28717041
-2465.76318359 -9753.98828125 507.67520142
-2458.03686523 -9694.90820313 677.81060791
-2469.11523438 -9705.81347656 629.65692139
-2461.25683594 -9646.77343750 799.79547119
-2485.20141602 -9700.92871094 619.10998535
-2487.42285156 -9677.74121094 675.18011475
-2518.87280273 -9760.24511719 398.86468506
-2520.21215820 -9734.04101563 464.43481445
-2526.29614258 -9725.40722656 483.34960938
-2495.34106445 -9590.06054688 900.97650146
-2499.91064453 -9575.84570313 928.52478027
-2516.99243164 -9605.97167969 823.84332275
-2530.48364258 -9625.70605469 747.13427734
-2544.99389648 -9646.84863281 670.96551514
-2517.47534180 -9522.40429688 1050.25622559
-2556.53393555 -9627.24316406 697.50360107
-2564.79711914 -9629.04980469 677.81677246
-2580.13623047 -9653.09667969 592.12341309
-2604.56616211 -9707.19238281 400.96130371
-2571.39331055 -9565.05664063 837.31677246
-2591.48144531 -9633.41992188 618.63397217
-2610.10253906 -9641.66503906 559.88757324
-2610.85620117 -9615.47558594 625.43017578
-2608.92407227 -9584.21875000 720.69702148
-2602.52441406 -9534.30859375 862.31072998
-2612.82983398 -9540.78027344 823.25427246
-2650.54907227 -9639.13378906 489.40121460
-2629.37890625 -9543.02343750 783.49597168
-2673.86450195 -9664.65429688 383.92330933
-2670.83178711 -9626.59082031 487.48779297
-2661.50317383 -9571.66113281 658.82257080
-2675.30029297 -9589.87695313 581.69860840
-2673.00000000 -9554.80957031 675.75378418
-2719.02172852 -9683.32617188 257.44320679
-2682.59008789 -9535.85644531 712.88757324
-2167.42041016 -6644.47607422 632.23260498
-2185.59521484 -6720.97509766 301.29089355
-2174.17553711 -6705.97265625 348.30929565
-2148.87451172 -6650.65380859 559.90588379
-2133.98901367 -6630.32763672 636.30981445
-2132.13330078 -6644.18359375 556.93658447
-2153.51708984 -6730.96582031 187.46339417
-2107.35571289 -6613.58593750 661.00457764
-2099.97998047 -6611.35009766 649.53912354
-2114.73608398 -6674.65966797 366.75408936
-2093.41821289 -6631.03271484 529.91021729
-2076.92602539 -6606.22802734 625.75677490
-2080.73486328 -6637.32958984 478.78408813
-2061.75830078 -6600.67431641 612.85998535
-2038.23596191 -6616.44091797 480.60910034
-342.34838867 -6060.79199219 915.77142334
-335.27801514 -6088.89941406 778.19519043
-333.25131226 -6149.86425781 494.35418701
-311.99108887 -6091.97753906 757.43402100
-297.60580444 -6074.10009766 824.64288330
-290.59500122 -6104.42089844 677.32537842
-276.32220459 -6095.96728516 715.89349365
-270.67028809 -6131.68115234 549.33471680
-256.54769897 -6116.04150391 606.81451416
-246.63119507 -6128.87158203 537.52441406
-225.56849670 -6074.52294922 780.91741943
-216.80839539 -6090.56884766 702.14538574
-208.36399841 -6114.37402344 584.10339355
-198.22230530 -6121.68017578 544.34808350
-185.92849731 -6119.25146484 543.35021973
-179.09809875 -6156.18164063 366.79681396
-158.59410095 -6104.16503906 600.50347900
-141.16529846 -6059.05859375 794.85162354
-125.02369690 -6028.29296875 920.68792725
-130.87820435 -6170.80908203 286.32501221
-105.95400238 -6068.94091797 734.30169678
-90.71050262 -6044.77294922 830.89288330
-76.61419678 -6038.74560547 859.82037354
-69.55809784 -6077.94580078 673.54730225
-72.13950348 -6187.99658203 175.37229919
-45.44919968 -6083.76123047 643.28308105
-28.87339973 -6048.75146484 788.68707275
-20.77079964 -6075.86132813 661.20599365
-6.90220022 -6062.71289063 709.07897949
0.25130001 -6115.71435547 474.65209961
25.31739998 -6008.76904297 942.02868652
34.37749863 -6029.37255859 843.82922363
42.39170074 -6066.45410156 667.34307861
59.77849960 -6022.85644531 851.83697510
66.70819855 -6070.84521484 626.57458496
79.39489746 -6072.53076172 626.56848145
94.75450134 -6046.42041016 733.03222656
105.12030029 -6058.35302734 673.88909912
123.21309662 -6017.69335938 859.03308105
137.30009460 -6002.53759766 916.74188232
140.88319397 -6087.61621094 525.63171387
149.20939636 -6121.36914063 368.92999268
168.14160156 -6072.07958984 593.14569092
185.37809753 -6026.47851563 787.48468018
195.34170532 -6045.02197266 699.10272217
207.42720032 -6063.29833984 620.86181641
227.03439331 -5991.62207031 932.31811523
229.46719360 -6112.26953125 395.47119141
241.76739502 -6109.07666016 404.68438721
257.60778809 -6076.63037109 540.52728271
270.28698730 -6069.11376953 569.27191162
287.92221069 -6024.87500000 753.68652344
300.93481445 -6013.04003906 801.96832275
310.37420654 -6052.47216797 615.81109619
327.49938965 -6016.47509766 781.59167480
335.81259155 -6061.23632813 576.16271973
351.06930542 -6033.27246094 692.54748535
364.93460083 -6036.47412109 682.69042969
382.33789063 -5980.27734375 925.96429443
390.11019897 -6035.94482422 671.75592041
398.67529297 -6095.00585938 397.79660034
414.53369141 -6062.26318359 554.11370850
422.72540283 -6130.04394531 241.12550354
-341.71499634 -1949.17712402 59.30179977
-336.66729736 -1893.14294434 516.03997803
-353.72290039 -1907.94714355 367.31561279
-356.60128784 -1875.64648438 615.55468750
-375.12390137 -1898.96545410 427.59698486
-394.44531250 -1920.76208496 219.33290100
-404.01779175 -1910.77539063 279.01910400
-402.88610840 -1870.54724121 626.95611572
-434.49819946 -1931.06823730 91.21399689
-441.47769165 -1913.29821777 240.58839417
-452.01779175 -1906.78833008 270.50469971
-451.83331299 -1870.79357910 558.52661133
-459.54980469 -1856.07385254 657.91009521
-479.12109375 -1877.69665527 449.66430664
-489.82830811 -1875.71350098 449.89929199
-498.60238647 -1864.47973633 519.51599121
-516.80041504 -1881.80163574 371.18530273
-514.00189209 -1839.98144531 708.81951904
-522.97827148 -1829.90625000 768.51501465
-541.96411133 -1849.50708008 600.33868408
-569.91882324 -1894.33850098 193.64320374
-574.03338623 -1870.17541504 372.41821289
-585.42480469 -1870.42517090 352.81671143
-584.38928223 -1832.72192383 670.87701416
-593.97851563 -1824.91564941 710.72692871
-603.56451416 -1820.47937012 730.81658936
-618.94372559 -1829.42614746 651.95922852
-629.29022217 -1823.91589355 671.96960449
-657.98901367 -1872.33825684 265.75009155
-659.36047363 -1842.31372070 494.13449097
-673.99841309 -1848.39318848 414.91699219
-669.93188477 -1804.43493652 762.37487793
-691.59472656 -1832.47497559 504.63558960
-704.90942383 -1835.01501465 455.18798828
-706.60900879 -1807.80310059 683.93847656
-730.23278809 -1840.40881348 386.52038574
-746.94781494 -1819.84948730 505.92340088
-761.14758301 -1828.47888184 437.08801270
-754.31518555 -1779.93884277 824.21868896
-777.14788818 -1806.71154785 566.41229248
-783.44348145 -1791.77575684 665.80511475
-784.55871582 -1767.93615723 874.78631592
-811.26971436 -1803.88476563 537.61291504
-822.60632324 -1801.63378906 527.86248779
-839.92297363 -1814.85278320 409.34140015
-848.57891846 -1809.01757813 439.36151123
-855.09698486 -1795.18054199 528.83288574
-857.98889160 -1773.72973633 707.95892334
-870.35949707 -1777.10705566 658.60888672
-869.37878418 -1745.98278809 896.89941406
-889.29840088 -1764.39575195 708.56927490
-917.45758057 -1802.79980469 371.78338623
-923.94671631 -1792.29138184 441.49169922
-913.23089600 -1739.31542969 868.28308105
-941.77502441 -1777.15759277 511.29449463
-947.11138916 -1764.34411621 600.84832764
-966.53228760 -1781.90954590 442.65130615
-964.42071533 -1749.64318848 690.85687256
-963.68811035 -1720.84704590 909.29870605
-991.83807373 -1759.58776855 552.40472412
-1002.06207275 -1756.44128418 572.78747559
-1002.67877197 -1731.06970215 761.46228027
-1015.15808105 -1732.02246094 721.96038818
-1035.27246094 -1752.32348633 523.80670166
-1052.75659180 -1765.12731934 405.30700684
-1050.48901367 -1734.03417969 643.58209229
-1086.65100098 -1788.49511719 147.82099915
-1066.35437012 -1720.22546387 733.66998291
-1087.89221191 -1740.46875000 525.52478027
-1080.40795898 -1699.15197754 853.07611084
-1092.78637695 -1703.81213379 814.01672363
-1108.41308594 -1711.46899414 714.99938965
-1139.37524414 -1750.93750000 338.21710205
-1134.08618164 -1717.55627441 606.32318115
-1149.22448730 -1723.99792480 517.23022461
-1150.16076660 -1702.51135254 696.32867432
-1164.16406250 -1706.65783691 627.07507324
-1176.90246582 -1710.74121094 567.81921387
-1175.37121582 -1684.71862793 786.59661865
-1198.36682129 -1706.94470215 558.63031006
-1206.57189941 -1701.92480469 578.73229980
-1202.94067383 -1670.92016602 816.98602295
-1216.46533203 -1675.44335938 767.92602539
-1220.52685547 -1662.50000000 857.46459961
-1237.33593750 -1672.17541504 738.61688232
-1242.60229492 -1659.25683594 818.15789795
-1258.98986816 -1669.35437012 719.50067139
-1269.31445313 -1668.78771973 699.92968750
-1292.64233398 -1690.75183105 471.97558594
-1298.52197266 -1680.51989746 551.86761475
-1295.83032227 -1655.15625000 750.51257324
-1305.59252930 -1651.19360352 750.69567871
-1302.81408691 -1623.63708496 959.17358398
-1328.04272461 -1648.84411621 701.47088623
-1332.44311523 -1636.34716797 801.19317627
-1359.51745605 -1667.07641602 503.90008545
-1374.68041992 -1673.11157227 414.81631470
-1380.75598145 -1666.18286133 474.94500732
-1380.65942383 -1644.21093750 633.82562256
-1388.43237305 -1636.79235840 663.76342773
-1410.93737793 -1656.17358398 455.66400146
-1409.44274902 -1635.81689453 634.81140137
-1431.38952637 -1654.03430176 436.62719727
-1431.62133789 -1633.18310547 585.58648682
-1444.88159180 -1635.73974609 526.26031494
-1448.12707520 -1624.30493164 626.05578613
-1460.10192871 -1624.61181641 586.56298828
-1457.53906250 -1599.33251953 775.18908691
-1477.71215820 -1617.89892578 607.19598389
-1482.01281738 -1604.83618164 686.72167969
-1512.44824219 -1637.26647949 359.61608887
-1492.99926758 -1583.16198730 806.09429932
-1520.92053223 -1613.31835938 508.82571411
-1522.52868652 -1597.41149902 638.28417969
-1551.89428711 -1627.47375488 331.02410889
-1555.35131836 -1615.49023438 410.62310791
-1547.68261719 -1584.10302734 678.92449951
-1556.87805176 -1579.84484863 679.10150146
-1573.93835449 -1588.81127930 560.27532959
-1587.73950195 -1594.46630859 481.19500732
-1612.14086914 -1617.10998535 263.54669189
-1589.46142578 -1559.93212891 739.74298096
-1623.86901855 -1599.64990234 353.23791504
-1616.95971680 -1568.92199707 591.42138672
-1630.02954102 -1572.77807617 542.36138916
-1658.62158203 -1602.48339844 245.11720276
-1638.67651367 -1550.93261719 671.71008301
-1670.66064453 -1585.43762207 344.98590088
-1661.32446289 -1551.46081543 612.90887451
-1694.17590332 -1587.59619141 256.16448975
-1693.59289551 -1567.85107422 395.17208862
-1698.41613770 -1556.86230469 454.84619141
-1717.60925293 -1570.41296387 316.53741455
-1709.30969238 -1540.91503906 554.78210449
-1720.22509766 -1539.73400879 525.20141602
-1737.33386230 -1549.95373535 416.64428711
-1702.99145508 -1480.22070313 1021.77728271
-1758.52136230 -1548.64111328 357.56530762
-1760.99389648 -1534.35205078 446.98181152
-1765.44641113 -1524.94250488 516.90667725
-1786.94677734 -1542.18603516 328.75360107
-1781.50805664 -1515.96301270 527.23992920
-1779.51196289 -1495.18798828 676.14440918
-1806.65222168 -1522.63500977 418.92388916
-1792.42114258 -1483.46386719 736.38909912
-1823.89819336 -1513.48974609 419.25659180
-1808.66625977 -1474.89111328 756.89392090
-1851.88000488 -1524.34313965 271.27380371
-1834.42407227 -1480.91845703 628.39648438
-1832.02075195 -1460.17504883 777.28881836
-1860.20092773 -1486.85705566 499.89929199
-1861.97875977 -1474.16870117 599.55438232
-1881.36022949 -1485.65429688 450.98870850
-1873.64135742 -1457.39440918 669.28411865
-1901.25476074 -1482.85644531 401.80969238
-1888.85571289 -1449.79638672 689.84368896
-1900.11303711 -1449.42285156 650.34167480
-1887.62622070 -1414.81201172 928.11889648
-1933.03540039 -1467.42761230 432.94369507
-1942.06274414 -1463.78076172 423.18719482
-1930.12878418 -1430.25231934 691.03997803
-1936.98022461 -1425.63989258 701.18707275
-1935.95581055 -1409.74987793 830.56341553
-1955.37219238 -1421.00708008 681.99761963
-1982.38647461 -1442.84973145 434.28338623
-1964.76782227 -1405.79638672 771.94207764
-1976.61645508 -1406.36279297 722.51892090
-1970.36706543 -1383.67285156 901.20227051
-1992.09448242 -1398.00061035 722.89422607
-2010.04113770 -1406.98449707 594.15582275
-2007.86254883 -1390.04833984 733.43200684
-2010.61914063 -1380.07629395 793.13958740
-2014.66540527 -1370.00317383 842.85882568
-2030.27563477 -1375.75097656 743.85980225
-2025.52624512 -1355.67492676 912.86920166
-2031.78027344 -1348.76110840 932.83990479
-2047.58728027 -1356.67700195 824.00201416
-2038.18847656 -1332.52160645 1042.65124512
-2059.22509766 -1345.55981445 874.25842285
-2097.58447266 -1381.63049316 487.75628662
-2099.84936523 -1369.38964844 557.29058838
-2093.94213867 -1348.29846191 736.19989014
-2077.33959961 -1313.17944336 1033.81945801
-2120.63281250 -1355.35290527 587.84478760
-2111.35913086 -1330.10449219 806.39947510
-2141.52807617 -1356.63269043 519.12231445
-2132.38061523 -1329.78332520 727.43518066
-2157.56176758 -1347.75476074 509.47259521
-2176.38085938 -1357.34216309 370.81600952
-2155.82397461 -1319.80834961 718.31347656
-2151.22436523 -1299.26354980 867.13861084
-2195.84643555 -1342.02600098 411.25790405
-2199.58007813 -1334.04382324 451.11080933
-2179.99560547 -1296.46875000 788.60778809
-2210.16845703 -1320.44543457 511.16329956
-2220.32031250 -1320.72888184 471.71020508
-2223.35595703 -1312.14697266 531.63140869
-2215.15332031 -1287.49255371 720.09881592
-2218.35327148 -1277.30493164 769.77838135
-2221.51123047 -1267.12109375 819.46099854
-2272.47534180 -1320.43554688 294.60140991
-2230.41528320 -1267.95739746 800.14947510
-2242.34472656 -1254.76879883 830.11468506
-2245.37573242 -1248.39147949 880.18792725
-2266.65087891 -1260.74902344 711.78277588
-2284.62817383 -1268.96081543 583.03222656
-2267.03735352 -1235.37304688 870.67858887
-2294.19213867 -1254.79492188 632.88568115
-2298.43725586 -1248.22924805 672.96142578
-2314.73583984 -1254.31005859 564.03192139
-2308.64770508 -1235.06872559 712.89672852
-2310.58081055 -1223.82116699 772.47308350
-2340.89306641 -1248.76025391 505.26419067
-2330.43139648 -1224.45532227 703.68652344
-2328.86596680 -1209.14208984 802.90222168
-2331.99975586 -1201.54052734 852.87481689
-2355.41992188 -1217.81408691 654.80950928
-2354.59375000 -1203.51110840 744.10998535
-2359.70556641 -1196.29394531 764.03192139
-2373.86230469 -1201.79980469 685.14099121
-2378.06787109 -1193.55419922 714.96881104
-2392.95678711 -1199.59472656 616.01562500
-2391.35913086 -1173.64196777 794.91882324
-2394.95800781 -1166.58410645 824.81378174
-2436.31420898 -1201.45910645 428.43319702
-2418.26782227 -1169.74279785 716.26281738
-2443.57519531 -1187.69543457 498.36718750
-2435.36181641 -1165.38867188 666.94641113
-2465.54272461 -1187.05822754 399.41400146
-2446.72875977 -1152.80017090 686.92620850
-2437.46606445 -1133.38037109 865.79577637
-2467.67358398 -1154.97241211 598.26037598
-2477.68334961 -1153.61669922 558.69128418
-2454.16162109 -1118.32104492 896.13342285
-2479.11694336 -1133.85729980 688.06762695
-2531.57226563 -1180.05957031 172.75079346
-2469.70776367 -1098.41455078 935.98327637
-2532.92187500 -1160.22802734 302.11788940
-2558.89843750 -1176.55126953 84.13999939
-2512.66650391 -1112.87048340 668.96051025
-2110.77099609 -10652.91894531 177.09350586
-2085.10839844 -10502.62597656 611.25177002
-2080.11645508 -10440.41992188 791.00952148
-2101.64526367 -10493.66503906 620.22998047
-2110.25097656 -10488.83300781 619.34808350
-2111.26391602 -10452.41113281 713.03698730
-2104.47070313 -10383.92578125 911.70947266
-2132.11718750 -10462.33203125 665.24652100
-2137.56298828 -10444.84472656 702.18200684
-2144.49804688 -10433.66699219 720.20257568
-2140.83129883 -10382.65722656 861.52038574
-2146.13964844 -10365.17871094 898.45892334
-2156.03222656 -10366.60742188 878.63757324
-2166.50292969 -10370.66796875 859.75042725
-2176.54296875 -10376.38769531 830.79827881
-2191.82470703 -10399.81542969 744.75091553
-2207.70996094 -10425.86914063 659.63128662
-2233.35034180 -10494.47949219 441.47338867
-2186.66625977 -10268.75878906 1113.12548828
-2203.43066406 -10298.44726563 1008.14819336
-2229.85644531 -10370.14746094 780.52062988
-2271.71215820 -10499.86914063 383.19390869
-2253.04321289 -10387.98437500 703.90319824
-2242.14282227 -10307.58789063 930.01702881
-2284.92724609 -10440.30566406 523.19641113
-2294.94506836 -10409.42773438 587.85998535
-2287.17797852 -10309.53710938 860.66888428
-2333.69677734 -10455.01367188 405.56030273
-2303.03125000 -10299.46289063 858.75848389
-2334.33911133 -10389.11621094 584.67102051
-2345.49560547 -10396.55468750 545.85571289
-2354.20825195 -10394.57812500 535.41857910
-2356.64697266 -10371.86621094 591.55572510
-2352.01123047 -10319.31542969 742.90472412
-2373.68530273 -10367.39941406 581.06072998
-2370.01782227 -10318.47363281 712.55798340
-2380.22387695 -10326.55468750 684.44818115
-2381.36889648 -10296.40234375 759.16442871
-2370.64282227 -10222.00878906 976.74859619
-2393.95507813 -10276.25292969 795.95642090
-2416.76538086 -10331.63183594 615.49371338
-2399.51342773 -10232.77929688 898.40386963
-2428.39941406 -10308.28906250 661.72479248
-2420.97509766 -10246.92480469 831.07299805
-2437.14282227 -10277.24609375 726.29998779
-2483.15112305 -10415.48144531 289.92001343
-2465.56542969 -10316.70214844 572.83319092
-2460.45385742 -10268.55371094 715.04510498
-2473.79101563 -10285.13183594 647.77221680
